0.1622222222222222 0.1622222222222222 0.16555555555555557 0.1688888888888889 0.17777777777777778 0.18 0.18 0.1811111111111111 0.18 0.17555555555555555 0.17444444444444446 0.17555555555555555 0.17555555555555555 0.17444444444444446 0.17222222222222222 0.1711111111111111 0.16555555555555557 0.16111111111111112 0.16 0.16 0.16111111111111112 0.16111111111111112 0.15777777777777777 0.15666666666666668 0.15666666666666668 0.15666666666666668 0.15666666666666668 0.15666666666666668 0.15777777777777777 0.15666666666666668 0.15777777777777777 0.15777777777777777 0.15777777777777777 0.15777777777777777 0.15888888888888889 0.16111111111111112 0.16333333333333333 0.16444444444444445 0.16333333333333333 0.15333333333333332 0.15222222222222223 0.15 0.14888888888888888 0.14666666666666667 0.14888888888888888 0.14666666666666667 0.14444444444444443 0.14555555555555555 0.14777777777777779 0.14888888888888888 0.14777777777777779 0.14666666666666667 0.14666666666666667 0.14 0.12111111111111111 0.11777777777777777 0.11666666666666667 0.11444444444444445 0.11222222222222222 0.1111111111111111 0.1111111111111111 0.11333333333333333 0.11555555555555555 0.12 0.12555555555555556 0.12555555555555556 0.12777777777777777 0.1288888888888889 0.12777777777777777 0.12666666666666668 0.12555555555555556 0.12444444444444444 0.12444444444444444 0.12555555555555556 0.12777777777777777 0.13111111111111112 0.13 0.1288888888888889 0.12777777777777777 0.12666666666666668 0.12444444444444444 0.12555555555555556 0.12777777777777777 0.1288888888888889 0.1288888888888889 0.13 0.13111111111111112 0.13 0.1288888888888889 0.13 0.13555555555555557 0.13555555555555557 0.13555555555555557 0.13555555555555557 0.13444444444444445 0.13666666666666666 0.13777777777777778 0.13444444444444445 0.13111111111111112 0.1288888888888889 0.11888888888888889 0.11555555555555555 0.11333333333333333 0.11555555555555555 0.12 0.12 0.12 0.11888888888888889 0.12 0.12222222222222222 0.12222222222222222 0.12 0.11777777777777777 0.11777777777777777 0.11777777777777777 0.11555555555555555 0.11333333333333333 0.11333333333333333 0.11333333333333333 0.11 0.10666666666666667 0.10666666666666667 0.10888888888888888 0.11333333333333333 0.11666666666666667 0.11777777777777777 0.11777777777777777 0.11777777777777777 0.12 0.12222222222222222 0.12444444444444444 0.13 0.13777777777777778 0.14333333333333334 0.14222222222222222 0.1388888888888889 0.1388888888888889 0.13555555555555557 0.12444444444444444 0.12 0.11666666666666667 0.11777777777777777 0.11888888888888889 0.12111111111111111 0.12444444444444444 0.12555555555555556 0.12555555555555556 0.12777777777777777 0.1288888888888889 0.1288888888888889 0.12666666666666668 0.12666666666666668 0.12666666666666668 0.12666666666666668 0.12777777777777777 0.12666666666666668 0.12777777777777777 0.1288888888888889 0.1288888888888889 0.13111111111111112 0.13333333333333333 0.13444444444444445 0.13555555555555557
0.16333333333333333 0.16444444444444445 0.16555555555555557 0.1688888888888889 0.17444444444444446 0.17777777777777778 0.17888888888888888 0.17888888888888888 0.17888888888888888 0.17666666666666667 0.17666666666666667 0.17555555555555555 0.17333333333333334 0.17222222222222222 0.17 0.16777777777777778 0.16333333333333333 0.16111111111111112 0.16 0.15888888888888889 0.16 0.15888888888888889 0.15777777777777777 0.15444444444444444 0.15555555555555556 0.15555555555555556 0.15444444444444444 0.15444444444444444 0.15444444444444444 0.15555555555555556 0.15555555555555556 0.15666666666666668 0.15555555555555556 0.15777777777777777 0.16333333333333333 0.16444444444444445 0.16444444444444445 0.16444444444444445 0.16111111111111112 0.15222222222222223 0.15222222222222223 0.15 0.14666666666666667 0.14444444444444443 0.14444444444444443 0.14333333333333334 0.14222222222222222 0.14222222222222222 0.14333333333333334 0.14333333333333334 0.14444444444444443 0.14333333333333334 0.14444444444444443 0.1388888888888889 0.12222222222222222 0.12111111111111111 0.12111111111111111 0.11777777777777777 0.11666666666666667 0.1111111111111111 0.10888888888888888 0.1111111111111111 0.11444444444444445 0.11888888888888889 0.12333333333333334 0.12444444444444444 0.12555555555555556 0.12666666666666668 0.12555555555555556 0.12333333333333334 0.12444444444444444 0.12444444444444444 0.12444444444444444 0.12444444444444444 0.12444444444444444 0.13 0.1288888888888889 0.1288888888888889 0.1288888888888889 0.13 0.12444444444444444 0.12444444444444444 0.12666666666666668 0.1288888888888889 0.13 0.13333333333333333 0.13444444444444445 0.13111111111111112 0.1288888888888889 0.1288888888888889 0.13444444444444445 0.13555555555555557 0.13444444444444445 0.13333333333333333 0.13111111111111112 0.13333333333333333 0.13555555555555557 0.13444444444444445 0.13333333333333333 0.13111111111111112 0.12 0.11444444444444445 0.1111111111111111 0.11444444444444445 0.11888888888888889 0.12 0.11888888888888889 0.11888888888888889 0.12 0.12111111111111111 0.11888888888888889 0.11666666666666667 0.11555555555555555 0.11666666666666667 0.11777777777777777 0.11222222222222222 0.11 0.11222222222222222 0.11222222222222222 0.11 0.10666666666666667 0.10666666666666667 0.10888888888888888 0.11222222222222222 0.11444444444444445 0.11555555555555555 0.11666666666666667 0.11888888888888889 0.12222222222222222 0.12555555555555556 0.12777777777777777 0.13111111111111112 0.13777777777777778 0.1411111111111111 0.14222222222222222 0.14 0.1411111111111111 0.13444444444444445 0.12444444444444444 0.11888888888888889 0.11666666666666667 0.11666666666666667 0.11777777777777777 0.12 0.12111111111111111 0.12222222222222222 0.12333333333333334 0.12555555555555556 0.12666666666666668 0.12777777777777777 0.12555555555555556 0.12555555555555556 0.12666666666666668 0.12555555555555556 0.12555555555555556 0.12555555555555556 0.13 0.1322222222222222 0.13555555555555557 0.13666666666666666 0.13777777777777778 0.13555555555555557 0.13444444444444445
0.16666666666666666 0.16666666666666666 0.16666666666666666 0.16777777777777778 0.17 0.17222222222222222 0.17555555555555555 0.17666666666666667 0.17777777777777778 0.17666666666666667 0.17666666666666667 0.17555555555555555 0.1711111111111111 0.1688888888888889 0.16666666666666666 0.16666666666666666 0.16555555555555557 0.1622222222222222 0.16111111111111112 0.16 0.16 0.15888888888888889 0.15666666666666668 0.15444444444444444 0.15444444444444444 0.15444444444444444 0.15444444444444444 0.15333333333333332 0.15333333333333332 0.1511111111111111 0.15222222222222223 0.15555555555555556 0.15888888888888889 0.1622222222222222 0.16333333333333333 0.16111111111111112 0.16 0.16 0.15777777777777777 0.15222222222222223 0.15222222222222223 0.1511111111111111 0.14666666666666667 0.14333333333333334 0.1411111111111111 0.1411111111111111 0.14 0.1388888888888889 0.1388888888888889 0.1411111111111111 0.14 0.1388888888888889 0.13777777777777778 0.13333333333333333 0.1288888888888889 0.12333333333333334 0.12111111111111111 0.12111111111111111 0.11777777777777777 0.11555555555555555 0.11 0.1111111111111111 0.11444444444444445 0.11888888888888889 0.12222222222222222 0.12333333333333334 0.12444444444444444 0.12444444444444444 0.12222222222222222 0.12222222222222222 0.12444444444444444 0.12444444444444444 0.12444444444444444 0.12444444444444444 0.12444444444444444 0.12777777777777777 0.12777777777777777 0.12777777777777777 0.13 0.13 0.12333333333333334 0.12222222222222222 0.12555555555555556 0.12777777777777777 0.13 0.13555555555555557 0.13666666666666666 0.13333333333333333 0.13 0.13111111111111112 0.13333333333333333 0.13333333333333333 0.13444444444444445 0.13333333333333333 0.13333333333333333 0.13333333333333333 0.13444444444444445 0.13444444444444445 0.13333333333333333 0.13333333333333333 0.11888888888888889 0.11 0.11 0.11444444444444445 0.11888888888888889 0.11777777777777777 0.11777777777777777 0.11888888888888889 0.12 0.12 0.11888888888888889 0.11777777777777777 0.11666666666666667 0.11666666666666667 0.11666666666666667 0.11 0.10777777777777778 0.10888888888888888 0.10777777777777778 0.10666666666666667 0.10444444444444445 0.10666666666666667 0.10888888888888888 0.11333333333333333 0.11333333333333333 0.11444444444444445 0.11444444444444445 0.11666666666666667 0.12444444444444444 0.12777777777777777 0.1322222222222222 0.13444444444444445 0.13777777777777778 0.1411111111111111 0.1411111111111111 0.14 0.13666666666666666 0.1288888888888889 0.12 0.11666666666666667 0.11666666666666667 0.11555555555555555 0.11666666666666667 0.11777777777777777 0.11777777777777777 0.11888888888888889 0.12111111111111111 0.12111111111111111 0.12444444444444444 0.12777777777777777 0.12777777777777777 0.1288888888888889 0.1288888888888889 0.12777777777777777 0.12555555555555556 0.12555555555555556 0.13333333333333333 0.13555555555555557 0.13666666666666666 0.13777777777777778 0.13777777777777778 0.13444444444444445 0.13333333333333333
0.16777777777777778 0.16777777777777778 0.16666666666666666 0.16777777777777778 0.1688888888888889 0.17 0.1711111111111111 0.17555555555555555 0.17777777777777778 0.17777777777777778 0.17666666666666667 0.17555555555555555 0.1711111111111111 0.16666666666666666 0.16555555555555557 0.16666666666666666 0.16555555555555557 0.16444444444444445 0.1622222222222222 0.1622222222222222 0.16 0.15888888888888889 0.15555555555555556 0.15333333333333332 0.15444444444444444 0.15444444444444444 0.15444444444444444 0.15333333333333332 0.15222222222222223 0.14888888888888888 0.1511111111111111 0.15555555555555556 0.16111111111111112 0.16444444444444445 0.16111111111111112 0.15777777777777777 0.15666666666666668 0.15666666666666668 0.15666666666666668 0.15333333333333332 0.15333333333333332 0.1511111111111111 0.14777777777777779 0.14222222222222222 0.1388888888888889 0.1388888888888889 0.1388888888888889 0.13666666666666666 0.13555555555555557 0.13777777777777778 0.13777777777777778 0.13555555555555557 0.13444444444444445 0.13444444444444445 0.13333333333333333 0.12333333333333334 0.12222222222222222 0.12 0.11888888888888889 0.11666666666666667 0.11222222222222222 0.1111111111111111 0.11333333333333333 0.11888888888888889 0.12222222222222222 0.12333333333333334 0.12444444444444444 0.12444444444444444 0.12444444444444444 0.12444444444444444 0.12444444444444444 0.12555555555555556 0.12555555555555556 0.12444444444444444 0.12444444444444444 0.12666666666666668 0.12666666666666668 0.1288888888888889 0.1288888888888889 0.1288888888888889 0.12333333333333334 0.12333333333333334 0.12333333333333334 0.12666666666666668 0.13 0.13444444444444445 0.13555555555555557 0.13555555555555557 0.1322222222222222 0.13111111111111112 0.13111111111111112 0.13111111111111112 0.13111111111111112 0.13333333333333333 0.13444444444444445 0.13333333333333333 0.13333333333333333 0.13111111111111112 0.1322222222222222 0.13 0.11555555555555555 0.10777777777777778 0.10888888888888888 0.11333333333333333 0.11555555555555555 0.11777777777777777 0.11777777777777777 0.11777777777777777 0.12 0.12 0.11888888888888889 0.11777777777777777 0.11666666666666667 0.11555555555555555 0.11333333333333333 0.10888888888888888 0.10666666666666667 0.10555555555555556 0.10555555555555556 0.10444444444444445 0.10555555555555556 0.10666666666666667 0.1111111111111111 0.11333333333333333 0.11333333333333333 0.11444444444444445 0.11555555555555555 0.11888888888888889 0.12555555555555556 0.1322222222222222 0.13444444444444445 0.13666666666666666 0.13666666666666666 0.13777777777777778 0.1388888888888889 0.1388888888888889 0.1322222222222222 0.12444444444444444 0.11666666666666667 0.11444444444444445 0.11444444444444445 0.11666666666666667 0.11888888888888889 0.11888888888888889 0.11888888888888889 0.11888888888888889 0.11888888888888889 0.12 0.12555555555555556 0.13 0.13111111111111112 0.13111111111111112 0.13111111111111112 0.13 0.12666666666666668 0.12444444444444444 0.13444444444444445 0.13666666666666666 0.13666666666666666 0.13555555555555557 0.13444444444444445 0.13333333333333333 0.13333333333333333
0.1688888888888889 0.16777777777777778 0.1688888888888889 0.1711111111111111 0.1711111111111111 0.17 0.1711111111111111 0.17555555555555555 0.17888888888888888 0.18 0.17777777777777778 0.17555555555555555 0.17 0.16555555555555557 0.16555555555555557 0.16666666666666666 0.16555555555555557 0.16333333333333333 0.1622222222222222 0.16111111111111112 0.16111111111111112 0.16 0.15777777777777777 0.15444444444444444 0.15444444444444444 0.15444444444444444 0.15444444444444444 0.15222222222222223 0.1511111111111111 0.1511111111111111 0.15444444444444444 0.15777777777777777 0.15888888888888889 0.16111111111111112 0.16111111111111112 0.15666666666666668 0.15555555555555556 0.15444444444444444 0.15333333333333332 0.1511111111111111 0.15 0.14777777777777779 0.14444444444444443 0.14 0.13555555555555557 0.13666666666666666 0.13666666666666666 0.13444444444444445 0.13444444444444445 0.13666666666666666 0.13777777777777778 0.13777777777777778 0.1388888888888889 0.1388888888888889 0.13555555555555557 0.12555555555555556 0.12222222222222222 0.12222222222222222 0.12111111111111111 0.11777777777777777 0.1111111111111111 0.11 0.1111111111111111 0.11666666666666667 0.12222222222222222 0.12444444444444444 0.12333333333333334 0.12333333333333334 0.12555555555555556 0.12666666666666668 0.12444444444444444 0.12555555555555556 0.12777777777777777 0.1288888888888889 0.12777777777777777 0.12666666666666668 0.1288888888888889 0.1288888888888889 0.13 0.13 0.12555555555555556 0.12222222222222222 0.12222222222222222 0.12555555555555556 0.13111111111111112 0.13555555555555557 0.13666666666666666 0.13555555555555557 0.13555555555555557 0.13555555555555557 0.1322222222222222 0.1288888888888889 0.13 0.13111111111111112 0.13333333333333333 0.1322222222222222 0.13111111111111112 0.13 0.1288888888888889 0.1288888888888889 0.11333333333333333 0.11 0.1111111111111111 0.11222222222222222 0.11444444444444445 0.11666666666666667 0.11666666666666667 0.11777777777777777 0.11888888888888889 0.11888888888888889 0.11888888888888889 0.11777777777777777 0.11555555555555555 0.11333333333333333 0.11222222222222222 0.11 0.10555555555555556 0.10444444444444445 0.10555555555555556 0.10555555555555556 0.10666666666666667 0.10888888888888888 0.11222222222222222 0.11444444444444445 0.11333333333333333 0.11555555555555555 0.12111111111111111 0.12111111111111111 0.1288888888888889 0.13555555555555557 0.13777777777777778 0.13444444444444445 0.13333333333333333 0.13444444444444445 0.13555555555555557 0.13666666666666666 0.13111111111111112 0.12555555555555556 0.11888888888888889 0.11555555555555555 0.11555555555555555 0.11777777777777777 0.12 0.12 0.12 0.11888888888888889 0.11666666666666667 0.11666666666666667 0.12111111111111111 0.12777777777777777 0.13 0.13111111111111112 0.13 0.12777777777777777 0.12666666666666668 0.12555555555555556 0.1288888888888889 0.13111111111111112 0.13111111111111112 0.1288888888888889 0.13 0.13333333333333333 0.13444444444444445
0.17 0.1711111111111111 0.1711111111111111 0.17333333333333334 0.17444444444444446 0.17444444444444446 0.17444444444444446 0.17666666666666667 0.17888888888888888 0.17666666666666667 0.17444444444444446 0.1711111111111111 0.16777777777777778 0.16555555555555557 0.16555555555555557 0.16444444444444445 0.1622222222222222 0.16111111111111112 0.16111111111111112 0.16111111111111112 0.1622222222222222 0.16111111111111112 0.16 0.15777777777777777 0.15555555555555556 0.15555555555555556 0.15444444444444444 0.15222222222222223 0.1511111111111111 0.15 0.15666666666666668 0.15777777777777777 0.15777777777777777 0.15888888888888889 0.16 0.15555555555555556 0.15333333333333332 0.1511111111111111 0.14888888888888888 0.14777777777777779 0.14666666666666667 0.14444444444444443 0.14 0.13555555555555557 0.13333333333333333 0.13444444444444445 0.13666666666666666 0.13666666666666666 0.13666666666666666 0.14 0.14333333333333334 0.14333333333333334 0.14444444444444443 0.1411111111111111 0.13666666666666666 0.12777777777777777 0.12555555555555556 0.12333333333333334 0.12111111111111111 0.11888888888888889 0.11 0.1111111111111111 0.11444444444444445 0.11666666666666667 0.12 0.12111111111111111 0.12111111111111111 0.12111111111111111 0.12222222222222222 0.12444444444444444 0.12333333333333334 0.12444444444444444 0.1288888888888889 0.13111111111111112 0.1322222222222222 0.1288888888888889 0.1288888888888889 0.1288888888888889 0.13 0.13 0.12555555555555556 0.12222222222222222 0.12111111111111111 0.12444444444444444 0.13 0.13666666666666666 0.13666666666666666 0.13666666666666666 0.13444444444444445 0.13555555555555557 0.1322222222222222 0.13 0.13 0.13111111111111112 0.1322222222222222 0.13111111111111112 0.13 0.12777777777777777 0.1288888888888889 0.12444444444444444 0.11222222222222222 0.11222222222222222 0.11333333333333333 0.11555555555555555 0.11555555555555555 0.11555555555555555 0.11666666666666667 0.11666666666666667 0.11666666666666667 0.11666666666666667 0.11666666666666667 0.11555555555555555 0.11444444444444445 0.11444444444444445 0.11222222222222222 0.11 0.10555555555555556 0.10555555555555556 0.10666666666666667 0.10666666666666667 0.10666666666666667 0.11 0.11444444444444445 0.11444444444444445 0.11444444444444445 0.11555555555555555 0.12111111111111111 0.12555555555555556 0.1288888888888889 0.1322222222222222 0.1322222222222222 0.13111111111111112 0.13111111111111112 0.13111111111111112 0.1322222222222222 0.13111111111111112 0.1288888888888889 0.12555555555555556 0.12222222222222222 0.11888888888888889 0.11777777777777777 0.12111111111111111 0.11888888888888889 0.11888888888888889 0.12 0.11888888888888889 0.11666666666666667 0.11666666666666667 0.12 0.12555555555555556 0.12777777777777777 0.1288888888888889 0.12666666666666668 0.12555555555555556 0.12666666666666668 0.12666666666666668 0.12777777777777777 0.12777777777777777 0.12777777777777777 0.1288888888888889 0.13 0.13555555555555557 0.13666666666666666
0.17 0.1711111111111111 0.17333333333333334 0.17555555555555555 0.17888888888888888 0.17777777777777778 0.17777777777777778 0.17777777777777778 0.17777777777777778 0.17666666666666667 0.17222222222222222 0.1688888888888889 0.16777777777777778 0.16666666666666666 0.1688888888888889 0.16444444444444445 0.1622222222222222 0.16111111111111112 0.16111111111111112 0.1622222222222222 0.1622222222222222 0.16111111111111112 0.16 0.15888888888888889 0.15888888888888889 0.15888888888888889 0.15666666666666668 0.15444444444444444 0.1511111111111111 0.15 0.15444444444444444 0.15444444444444444 0.15333333333333332 0.15444444444444444 0.15555555555555556 0.15222222222222223 0.15 0.14888888888888888 0.14777777777777779 0.14666666666666667 0.14444444444444443 0.14222222222222222 0.1388888888888889 0.13666666666666666 0.13555555555555557 0.13666666666666666 0.1388888888888889 0.1388888888888889 0.1411111111111111 0.14222222222222222 0.14555555555555555 0.14555555555555555 0.14333333333333334 0.1411111111111111 0.13666666666666666 0.1322222222222222 0.13 0.12444444444444444 0.12 0.11777777777777777 0.11222222222222222 0.11444444444444445 0.11666666666666667 0.11777777777777777 0.11777777777777777 0.11666666666666667 0.11777777777777777 0.11777777777777777 0.11888888888888889 0.12111111111111111 0.12222222222222222 0.12555555555555556 0.1288888888888889 0.1322222222222222 0.1322222222222222 0.13111111111111112 0.13 0.13 0.13 0.13 0.12555555555555556 0.12444444444444444 0.12333333333333334 0.12444444444444444 0.1288888888888889 0.13444444444444445 0.13555555555555557 0.13444444444444445 0.13333333333333333 0.13333333333333333 0.13333333333333333 0.1322222222222222 0.13333333333333333 0.13333333333333333 0.13444444444444445 0.13333333333333333 0.12555555555555556 0.12333333333333334 0.12333333333333334 0.12111111111111111 0.11777777777777777 0.11444444444444445 0.11666666666666667 0.11777777777777777 0.11777777777777777 0.11666666666666667 0.11666666666666667 0.11666666666666667 0.11555555555555555 0.11444444444444445 0.11555555555555555 0.11555555555555555 0.11444444444444445 0.11444444444444445 0.11333333333333333 0.11 0.10777777777777778 0.10666666666666667 0.10555555555555556 0.10444444444444445 0.10555555555555556 0.1111111111111111 0.11333333333333333 0.11333333333333333 0.11444444444444445 0.11777777777777777 0.12555555555555556 0.12555555555555556 0.12777777777777777 0.12777777777777777 0.12777777777777777 0.12777777777777777 0.12777777777777777 0.1288888888888889 0.1288888888888889 0.13 0.12777777777777777 0.12444444444444444 0.12222222222222222 0.12111111111111111 0.12111111111111111 0.12222222222222222 0.12 0.11777777777777777 0.12 0.11888888888888889 0.12111111111111111 0.12222222222222222 0.12333333333333334 0.12666666666666668 0.1288888888888889 0.12666666666666668 0.12666666666666668 0.12666666666666668 0.12666666666666668 0.12666666666666668 0.12666666666666668 0.12777777777777777 0.12777777777777777 0.13 0.13333333333333333 0.14 0.14222222222222222
0.16666666666666666 0.17 0.17333333333333334 0.17555555555555555 0.17777777777777778 0.17888888888888888 0.17666666666666667 0.17555555555555555 0.17444444444444446 0.17333333333333334 0.1711111111111111 0.17 0.1688888888888889 0.17 0.1711111111111111 0.16666666666666666 0.16333333333333333 0.16111111111111112 0.16111111111111112 0.1622222222222222 0.1622222222222222 0.16111111111111112 0.16 0.16 0.16 0.16 0.15888888888888889 0.15777777777777777 0.15555555555555556 0.15222222222222223 0.15444444444444444 0.15 0.14888888888888888 0.14888888888888888 0.14888888888888888 0.15 0.1511111111111111 0.14888888888888888 0.14666666666666667 0.14555555555555555 0.1411111111111111 0.14 0.1388888888888889 0.13777777777777778 0.13777777777777778 0.1388888888888889 0.14222222222222222 0.1411111111111111 0.14 0.1411111111111111 0.14444444444444443 0.14333333333333334 0.14333333333333334 0.1411111111111111 0.13777777777777778 0.13 0.12777777777777777 0.12555555555555556 0.12111111111111111 0.11666666666666667 0.11444444444444445 0.11555555555555555 0.11555555555555555 0.11666666666666667 0.11666666666666667 0.11333333333333333 0.11333333333333333 0.11666666666666667 0.11888888888888889 0.12111111111111111 0.12666666666666668 0.1288888888888889 0.13 0.13111111111111112 0.13333333333333333 0.13111111111111112 0.1288888888888889 0.1288888888888889 0.1288888888888889 0.13 0.12666666666666668 0.12666666666666668 0.12444444444444444 0.12444444444444444 0.12777777777777777 0.13111111111111112 0.13333333333333333 0.13333333333333333 0.1322222222222222 0.13111111111111112 0.1322222222222222 0.1322222222222222 0.13333333333333333 0.13444444444444445 0.13444444444444445 0.1322222222222222 0.12333333333333334 0.12111111111111111 0.12333333333333334 0.12444444444444444 0.12 0.11666666666666667 0.11777777777777777 0.11888888888888889 0.11888888888888889 0.11777777777777777 0.11888888888888889 0.11777777777777777 0.11666666666666667 0.11555555555555555 0.11555555555555555 0.11555555555555555 0.11555555555555555 0.11555555555555555 0.11333333333333333 0.11 0.10777777777777778 0.10666666666666667 0.10333333333333333 0.10333333333333333 0.10666666666666667 0.11333333333333333 0.11555555555555555 0.11555555555555555 0.11555555555555555 0.12 0.12666666666666668 0.12777777777777777 0.12777777777777777 0.12555555555555556 0.12444444444444444 0.12666666666666668 0.12666666666666668 0.12777777777777777 0.1288888888888889 0.12777777777777777 0.12666666666666668 0.12333333333333334 0.12 0.12222222222222222 0.12444444444444444 0.12444444444444444 0.12222222222222222 0.12111111111111111 0.12 0.12222222222222222 0.12444444444444444 0.12666666666666668 0.12777777777777777 0.13 0.1288888888888889 0.12777777777777777 0.12666666666666668 0.12666666666666668 0.12666666666666668 0.12666666666666668 0.13 0.13 0.13111111111111112 0.13333333333333333 0.13444444444444445 0.13666666666666666 0.1411111111111111
0.16777777777777778 0.1711111111111111 0.17444444444444446 0.17555555555555555 0.17666666666666667 0.17444444444444446 0.17222222222222222 0.17222222222222222 0.1711111111111111 0.17 0.1688888888888889 0.17 0.17 0.17222222222222222 0.17222222222222222 0.16777777777777778 0.16333333333333333 0.1622222222222222 0.1622222222222222 0.16333333333333333 0.16333333333333333 0.16111111111111112 0.16111111111111112 0.16111111111111112 0.16111111111111112 0.16 0.15888888888888889 0.15888888888888889 0.15666666666666668 0.15444444444444444 0.15222222222222223 0.15 0.14888888888888888 0.14666666666666667 0.14777777777777779 0.15 0.1511111111111111 0.14777777777777779 0.14666666666666667 0.14555555555555555 0.14444444444444443 0.14333333333333334 0.1411111111111111 0.14 0.13777777777777778 0.13555555555555557 0.1388888888888889 0.14222222222222222 0.14 0.14 0.14222222222222222 0.14333333333333334 0.14444444444444443 0.14333333333333334 0.14 0.13 0.1288888888888889 0.12666666666666668 0.12555555555555556 0.12222222222222222 0.11666666666666667 0.11555555555555555 0.11555555555555555 0.11555555555555555 0.11555555555555555 0.11333333333333333 0.11444444444444445 0.11666666666666667 0.11888888888888889 0.12111111111111111 0.12777777777777777 0.1288888888888889 0.13 0.13333333333333333 0.13666666666666666 0.13555555555555557 0.12777777777777777 0.12555555555555556 0.12666666666666668 0.12555555555555556 0.12555555555555556 0.12666666666666668 0.12222222222222222 0.12222222222222222 0.12666666666666668 0.13 0.13111111111111112 0.1322222222222222 0.13111111111111112 0.13 0.13 0.12666666666666668 0.1288888888888889 0.13111111111111112 0.1322222222222222 0.13111111111111112 0.12444444444444444 0.12333333333333334 0.12444444444444444 0.12444444444444444 0.12222222222222222 0.11777777777777777 0.11888888888888889 0.11888888888888889 0.11888888888888889 0.11777777777777777 0.12 0.12 0.11777777777777777 0.11666666666666667 0.11666666666666667 0.11555555555555555 0.11555555555555555 0.11333333333333333 0.1111111111111111 0.11 0.10888888888888888 0.10888888888888888 0.10777777777777778 0.10777777777777778 0.11 0.11777777777777777 0.11888888888888889 0.12111111111111111 0.12333333333333334 0.12444444444444444 0.12666666666666668 0.12777777777777777 0.12666666666666668 0.12555555555555556 0.12444444444444444 0.13 0.13 0.13 0.12777777777777777 0.12666666666666668 0.12333333333333334 0.12 0.11777777777777777 0.12 0.12444444444444444 0.12444444444444444 0.12333333333333334 0.12111111111111111 0.12111111111111111 0.12222222222222222 0.12555555555555556 0.12777777777777777 0.13 0.13111111111111112 0.13333333333333333 0.1322222222222222 0.13 0.13 0.1322222222222222 0.13555555555555557 0.13444444444444445 0.1322222222222222 0.13333333333333333 0.13555555555555557 0.13777777777777778 0.13777777777777778 0.1388888888888889
0.17333333333333334 0.17666666666666667 0.17666666666666667 0.17555555555555555 0.17444444444444446 0.17222222222222222 0.17 0.17 0.1688888888888889 0.16777777777777778 0.1688888888888889 0.17 0.17222222222222222 0.1711111111111111 0.17222222222222222 0.1688888888888889 0.16666666666666666 0.16444444444444445 0.16555555555555557 0.16777777777777778 0.16333333333333333 0.16111111111111112 0.1622222222222222 0.16333333333333333 0.1622222222222222 0.15888888888888889 0.15888888888888889 0.15777777777777777 0.15666666666666668 0.15555555555555556 0.15222222222222223 0.15 0.14888888888888888 0.14666666666666667 0.15 0.15 0.14888888888888888 0.14888888888888888 0.14888888888888888 0.14888888888888888 0.14666666666666667 0.14555555555555555 0.14333333333333334 0.14222222222222222 0.1388888888888889 0.13 0.13666666666666666 0.1388888888888889 0.14 0.14 0.1388888888888889 0.1411111111111111 0.14444444444444443 0.14333333333333334 0.1388888888888889 0.13333333333333333 0.13111111111111112 0.13111111111111112 0.12777777777777777 0.12777777777777777 0.12111111111111111 0.11777777777777777 0.11666666666666667 0.11444444444444445 0.11555555555555555 0.11555555555555555 0.11444444444444445 0.11555555555555555 0.11888888888888889 0.12 0.12222222222222222 0.12777777777777777 0.13111111111111112 0.13555555555555557 0.13777777777777778 0.13555555555555557 0.12555555555555556 0.12222222222222222 0.12222222222222222 0.12333333333333334 0.12333333333333334 0.12555555555555556 0.12222222222222222 0.12333333333333334 0.12555555555555556 0.12777777777777777 0.13111111111111112 0.13333333333333333 0.13111111111111112 0.13 0.1288888888888889 0.12444444444444444 0.12666666666666668 0.1288888888888889 0.13 0.1288888888888889 0.12666666666666668 0.12555555555555556 0.12555555555555556 0.12333333333333334 0.12111111111111111 0.11777777777777777 0.11777777777777777 0.11777777777777777 0.11777777777777777 0.11777777777777777 0.12 0.11888888888888889 0.11777777777777777 0.11666666666666667 0.11555555555555555 0.11444444444444445 0.11444444444444445 0.11333333333333333 0.1111111111111111 0.11 0.11222222222222222 0.11333333333333333 0.11444444444444445 0.11666666666666667 0.11888888888888889 0.11888888888888889 0.12222222222222222 0.12444444444444444 0.12555555555555556 0.12444444444444444 0.12444444444444444 0.12555555555555556 0.12666666666666668 0.12555555555555556 0.12555555555555556 0.13 0.1322222222222222 0.13111111111111112 0.1288888888888889 0.12555555555555556 0.12111111111111111 0.11777777777777777 0.11666666666666667 0.11888888888888889 0.12333333333333334 0.12555555555555556 0.12222222222222222 0.12 0.11888888888888889 0.12111111111111111 0.12222222222222222 0.12777777777777777 0.13111111111111112 0.13333333333333333 0.13444444444444445 0.13777777777777778 0.13555555555555557 0.13777777777777778 0.1411111111111111 0.14 0.13555555555555557 0.13 0.1322222222222222 0.13444444444444445 0.13777777777777778 0.14 0.14
0.17777777777777778 0.17888888888888888 0.17777777777777778 0.17555555555555555 0.17333333333333334 0.17 0.17 0.1688888888888889 0.1688888888888889 0.16777777777777778 0.1711111111111111 0.17444444444444446 0.17333333333333334 0.17222222222222222 0.1711111111111111 0.1688888888888889 0.16777777777777778 0.16555555555555557 0.16666666666666666 0.1688888888888889 0.16333333333333333 0.16111111111111112 0.1622222222222222 0.16333333333333333 0.16333333333333333 0.16 0.16 0.16 0.16 0.16 0.15444444444444444 0.15222222222222223 0.15222222222222223 0.15 0.15 0.1511111111111111 0.1511111111111111 0.15222222222222223 0.15333333333333332 0.15222222222222223 0.14555555555555555 0.14444444444444443 0.14555555555555555 0.14555555555555555 0.14444444444444443 0.13777777777777778 0.14 0.14222222222222222 0.14 0.1388888888888889 0.13555555555555557 0.13777777777777778 0.1411111111111111 0.14222222222222222 0.13555555555555557 0.1322222222222222 0.13444444444444445 0.13111111111111112 0.12777777777777777 0.12444444444444444 0.12333333333333334 0.11888888888888889 0.11777777777777777 0.11666666666666667 0.11555555555555555 0.11444444444444445 0.11333333333333333 0.11555555555555555 0.11777777777777777 0.12 0.12111111111111111 0.12666666666666668 0.13 0.1322222222222222 0.1322222222222222 0.1322222222222222 0.12555555555555556 0.12111111111111111 0.12222222222222222 0.12111111111111111 0.12333333333333334 0.12444444444444444 0.12222222222222222 0.12333333333333334 0.12555555555555556 0.12666666666666668 0.1322222222222222 0.13333333333333333 0.13111111111111112 0.13 0.1288888888888889 0.12666666666666668 0.12666666666666668 0.12777777777777777 0.12777777777777777 0.12777777777777777 0.12555555555555556 0.12666666666666668 0.12555555555555556 0.12333333333333334 0.11777777777777777 0.11666666666666667 0.11666666666666667 0.11666666666666667 0.11777777777777777 0.11777777777777777 0.11777777777777777 0.11888888888888889 0.11777777777777777 0.11666666666666667 0.11666666666666667 0.11555555555555555 0.11444444444444445 0.11333333333333333 0.11333333333333333 0.11222222222222222 0.11444444444444445 0.11777777777777777 0.12 0.12444444444444444 0.12555555555555556 0.11777777777777777 0.12 0.12111111111111111 0.12222222222222222 0.12 0.12111111111111111 0.12555555555555556 0.12777777777777777 0.12777777777777777 0.1288888888888889 0.1322222222222222 0.1322222222222222 0.13111111111111112 0.12777777777777777 0.12444444444444444 0.12333333333333334 0.12 0.12111111111111111 0.12333333333333334 0.12555555555555556 0.1288888888888889 0.12 0.11888888888888889 0.11777777777777777 0.11888888888888889 0.12111111111111111 0.12666666666666668 0.13 0.13555555555555557 0.13444444444444445 0.13666666666666666 0.1388888888888889 0.14222222222222222 0.14333333333333334 0.1411111111111111 0.13555555555555557 0.13 0.13111111111111112 0.13444444444444445 0.13666666666666666 0.13777777777777778 0.14
0.17555555555555555 0.17444444444444446 0.17444444444444446 0.17444444444444446 0.1711111111111111 0.1688888888888889 0.1688888888888889 0.1688888888888889 0.1688888888888889 0.16777777777777778 0.1711111111111111 0.17444444444444446 0.17333333333333334 0.1711111111111111 0.17 0.16777777777777778 0.16555555555555557 0.16444444444444445 0.16444444444444445 0.16666666666666666 0.16555555555555557 0.16444444444444445 0.16444444444444445 0.16444444444444445 0.16333333333333333 0.16111111111111112 0.16333333333333333 0.16333333333333333 0.16333333333333333 0.1622222222222222 0.15888888888888889 0.15666666666666668 0.15555555555555556 0.15333333333333332 0.15222222222222223 0.1511111111111111 0.15555555555555556 0.15666666666666668 0.15777777777777777 0.15555555555555556 0.14777777777777779 0.14777777777777779 0.14777777777777779 0.15 0.15222222222222223 0.1511111111111111 0.14666666666666667 0.14222222222222222 0.1388888888888889 0.13555555555555557 0.13444444444444445 0.13666666666666666 0.1388888888888889 0.1388888888888889 0.1322222222222222 0.12666666666666668 0.1288888888888889 0.1288888888888889 0.12444444444444444 0.12222222222222222 0.12 0.11777777777777777 0.11777777777777777 0.11777777777777777 0.11555555555555555 0.11555555555555555 0.11333333333333333 0.11555555555555555 0.11888888888888889 0.12222222222222222 0.12222222222222222 0.12444444444444444 0.12666666666666668 0.12777777777777777 0.13 0.13 0.12444444444444444 0.12222222222222222 0.12222222222222222 0.12333333333333334 0.12111111111111111 0.12111111111111111 0.12333333333333334 0.12333333333333334 0.12555555555555556 0.12666666666666668 0.1322222222222222 0.13111111111111112 0.13 0.1288888888888889 0.13 0.12555555555555556 0.12666666666666668 0.12666666666666668 0.12555555555555556 0.12555555555555556 0.12444444444444444 0.12444444444444444 0.12444444444444444 0.12222222222222222 0.11777777777777777 0.11666666666666667 0.11666666666666667 0.11777777777777777 0.11888888888888889 0.11888888888888889 0.11777777777777777 0.11777777777777777 0.11777777777777777 0.11777777777777777 0.11888888888888889 0.11666666666666667 0.11555555555555555 0.11555555555555555 0.11555555555555555 0.11555555555555555 0.11777777777777777 0.11888888888888889 0.12222222222222222 0.12444444444444444 0.12111111111111111 0.11444444444444445 0.11666666666666667 0.11888888888888889 0.12 0.11888888888888889 0.11777777777777777 0.12444444444444444 0.12777777777777777 0.1288888888888889 0.13111111111111112 0.13444444444444445 0.13333333333333333 0.13111111111111112 0.12777777777777777 0.12777777777777777 0.12444444444444444 0.12222222222222222 0.12444444444444444 0.12555555555555556 0.1288888888888889 0.13111111111111112 0.12 0.11666666666666667 0.11666666666666667 0.11777777777777777 0.12222222222222222 0.12444444444444444 0.12666666666666668 0.13111111111111112 0.13111111111111112 0.13 0.14 0.14333333333333334 0.14333333333333334 0.14 0.13777777777777778 0.1322222222222222 0.13333333333333333 0.13444444444444445 0.13555555555555557 0.13777777777777778 0.14
0.1688888888888889 0.16777777777777778 0.16777777777777778 0.16777777777777778 0.16666666666666666 0.16444444444444445 0.16666666666666666 0.16666666666666666 0.16777777777777778 0.16666666666666666 0.1688888888888889 0.1711111111111111 0.1711111111111111 0.1688888888888889 0.1688888888888889 0.16555555555555557 0.16333333333333333 0.1622222222222222 0.16444444444444445 0.16555555555555557 0.16555555555555557 0.16555555555555557 0.16444444444444445 0.16333333333333333 0.1622222222222222 0.16111111111111112 0.16333333333333333 0.16333333333333333 0.16333333333333333 0.16333333333333333 0.16333333333333333 0.15888888888888889 0.15777777777777777 0.15555555555555556 0.15444444444444444 0.15555555555555556 0.15555555555555556 0.15666666666666668 0.16 0.16 0.15777777777777777 0.15333333333333332 0.15333333333333332 0.15444444444444444 0.15333333333333332 0.14888888888888888 0.14333333333333334 0.1411111111111111 0.13777777777777778 0.13333333333333333 0.13333333333333333 0.13666666666666666 0.13666666666666666 0.13555555555555557 0.13 0.12555555555555556 0.12555555555555556 0.12555555555555556 0.12333333333333334 0.12111111111111111 0.11888888888888889 0.11666666666666667 0.11777777777777777 0.11666666666666667 0.11555555555555555 0.11444444444444445 0.11222222222222222 0.11444444444444445 0.12111111111111111 0.12333333333333334 0.12111111111111111 0.11888888888888889 0.12111111111111111 0.12333333333333334 0.12777777777777777 0.1288888888888889 0.12333333333333334 0.12111111111111111 0.12111111111111111 0.12111111111111111 0.11777777777777777 0.11777777777777777 0.12111111111111111 0.12444444444444444 0.12444444444444444 0.12555555555555556 0.1322222222222222 0.12666666666666668 0.12777777777777777 0.1322222222222222 0.13333333333333333 0.12555555555555556 0.12444444444444444 0.12444444444444444 0.12555555555555556 0.12444444444444444 0.12333333333333334 0.12333333333333334 0.12222222222222222 0.12 0.11666666666666667 0.11666666666666667 0.11888888888888889 0.12 0.12 0.12 0.11777777777777777 0.11777777777777777 0.11666666666666667 0.11555555555555555 0.11555555555555555 0.11666666666666667 0.11555555555555555 0.11666666666666667 0.11777777777777777 0.11888888888888889 0.11888888888888889 0.11777777777777777 0.11888888888888889 0.11888888888888889 0.11777777777777777 0.11555555555555555 0.11888888888888889 0.12222222222222222 0.12333333333333334 0.12222222222222222 0.12222222222222222 0.12333333333333334 0.12555555555555556 0.13 0.13444444444444445 0.13777777777777778 0.13666666666666666 0.13444444444444445 0.13111111111111112 0.12777777777777777 0.12666666666666668 0.12666666666666668 0.12777777777777777 0.12666666666666668 0.12777777777777777 0.13 0.12111111111111111 0.11666666666666667 0.11666666666666667 0.12111111111111111 0.12444444444444444 0.12444444444444444 0.12666666666666668 0.13 0.12777777777777777 0.12777777777777777 0.1388888888888889 0.14222222222222222 0.14333333333333334 0.14222222222222222 0.14 0.13333333333333333 0.13444444444444445 0.13777777777777778 0.13777777777777778 0.1388888888888889 0.14
0.16555555555555557 0.16333333333333333 0.16333333333333333 0.16333333333333333 0.16444444444444445 0.16444444444444445 0.16444444444444445 0.16555555555555557 0.16444444444444445 0.16444444444444445 0.16666666666666666 0.1688888888888889 0.16777777777777778 0.1688888888888889 0.17 0.16777777777777778 0.16555555555555557 0.16555555555555557 0.16555555555555557 0.16666666666666666 0.16555555555555557 0.16444444444444445 0.16444444444444445 0.16333333333333333 0.1622222222222222 0.16111111111111112 0.16 0.16111111111111112 0.1622222222222222 0.16444444444444445 0.16444444444444445 0.16111111111111112 0.16 0.15888888888888889 0.15888888888888889 0.15666666666666668 0.15777777777777777 0.16 0.16 0.15777777777777777 0.15666666666666668 0.15555555555555556 0.15555555555555556 0.15333333333333332 0.14888888888888888 0.14444444444444443 0.1411111111111111 0.1411111111111111 0.13777777777777778 0.13333333333333333 0.13111111111111112 0.13666666666666666 0.13666666666666666 0.1322222222222222 0.12777777777777777 0.12777777777777777 0.12555555555555556 0.12444444444444444 0.12222222222222222 0.12111111111111111 0.11888888888888889 0.11777777777777777 0.11777777777777777 0.11555555555555555 0.11444444444444445 0.11333333333333333 0.1111111111111111 0.1111111111111111 0.11333333333333333 0.11555555555555555 0.11777777777777777 0.11444444444444445 0.11555555555555555 0.12 0.12444444444444444 0.12666666666666668 0.12222222222222222 0.12 0.11888888888888889 0.11777777777777777 0.11777777777777777 0.11888888888888889 0.12333333333333334 0.12666666666666668 0.12666666666666668 0.12666666666666668 0.1288888888888889 0.12666666666666668 0.12666666666666668 0.13111111111111112 0.1322222222222222 0.12555555555555556 0.12444444444444444 0.12444444444444444 0.12333333333333334 0.12333333333333334 0.12222222222222222 0.12222222222222222 0.12111111111111111 0.11888888888888889 0.11555555555555555 0.11666666666666667 0.12 0.12222222222222222 0.12333333333333334 0.12222222222222222 0.12222222222222222 0.11888888888888889 0.11666666666666667 0.11333333333333333 0.11333333333333333 0.11666666666666667 0.11666666666666667 0.11777777777777777 0.12 0.12111111111111111 0.11888888888888889 0.11555555555555555 0.11777777777777777 0.11888888888888889 0.11777777777777777 0.11888888888888889 0.12222222222222222 0.12333333333333334 0.12444444444444444 0.12555555555555556 0.12555555555555556 0.12333333333333334 0.12666666666666668 0.13111111111111112 0.13444444444444445 0.13666666666666666 0.1388888888888889 0.13777777777777778 0.13444444444444445 0.13 0.12666666666666668 0.13111111111111112 0.1322222222222222 0.12777777777777777 0.12666666666666668 0.12777777777777777 0.12333333333333334 0.12 0.12111111111111111 0.12444444444444444 0.12666666666666668 0.12666666666666668 0.1288888888888889 0.13111111111111112 0.13 0.1288888888888889 0.13777777777777778 0.14333333333333334 0.14555555555555555 0.14555555555555555 0.14333333333333334 0.13666666666666666 0.1388888888888889 0.1388888888888889 0.14 0.1411111111111111 0.14
0.16777777777777778 0.16555555555555557 0.16555555555555557 0.16555555555555557 0.16555555555555557 0.16555555555555557 0.16333333333333333 0.1622222222222222 0.16333333333333333 0.16444444444444445 0.16444444444444445 0.16777777777777778 0.16777777777777778 0.1688888888888889 0.17222222222222222 0.17333333333333334 0.17333333333333334 0.17444444444444446 0.17 0.16777777777777778 0.16555555555555557 0.16555555555555557 0.16444444444444445 0.16555555555555557 0.16444444444444445 0.16444444444444445 0.16111111111111112 0.16111111111111112 0.16111111111111112 0.16333333333333333 0.16333333333333333 0.16111111111111112 0.1622222222222222 0.1622222222222222 0.16 0.15777777777777777 0.15777777777777777 0.16 0.16 0.15777777777777777 0.15888888888888889 0.15777777777777777 0.15555555555555556 0.15 0.14222222222222222 0.1388888888888889 0.13777777777777778 0.1388888888888889 0.13666666666666666 0.1322222222222222 0.12777777777777777 0.13111111111111112 0.13111111111111112 0.13 0.1288888888888889 0.12777777777777777 0.12444444444444444 0.12333333333333334 0.12333333333333334 0.12111111111111111 0.11888888888888889 0.11777777777777777 0.11666666666666667 0.11444444444444445 0.11222222222222222 0.1111111111111111 0.10777777777777778 0.10444444444444445 0.10222222222222223 0.10888888888888888 0.1111111111111111 0.11 0.11444444444444445 0.12 0.12222222222222222 0.12333333333333334 0.12333333333333334 0.12111111111111111 0.11777777777777777 0.11777777777777777 0.11888888888888889 0.12333333333333334 0.12444444444444444 0.12777777777777777 0.12777777777777777 0.12777777777777777 0.12666666666666668 0.12555555555555556 0.12666666666666668 0.13111111111111112 0.13 0.12444444444444444 0.12444444444444444 0.12222222222222222 0.12111111111111111 0.11888888888888889 0.11888888888888889 0.12 0.12 0.11888888888888889 0.11666666666666667 0.11666666666666667 0.12333333333333334 0.12555555555555556 0.12555555555555556 0.12555555555555556 0.12444444444444444 0.12111111111111111 0.11777777777777777 0.11555555555555555 0.11777777777777777 0.12 0.12 0.11888888888888889 0.12 0.12 0.11888888888888889 0.11666666666666667 0.11777777777777777 0.11666666666666667 0.11777777777777777 0.12 0.12222222222222222 0.12333333333333334 0.12555555555555556 0.12777777777777777 0.13 0.13111111111111112 0.13111111111111112 0.13111111111111112 0.13 0.13111111111111112 0.13444444444444445 0.13555555555555557 0.13333333333333333 0.13111111111111112 0.12777777777777777 0.13111111111111112 0.1322222222222222 0.13111111111111112 0.1288888888888889 0.1322222222222222 0.12666666666666668 0.12444444444444444 0.12555555555555556 0.12444444444444444 0.12555555555555556 0.12666666666666668 0.12777777777777777 0.12777777777777777 0.12777777777777777 0.13 0.13777777777777778 0.1411111111111111 0.14333333333333334 0.14555555555555555 0.14555555555555555 0.14 0.14 0.1388888888888889 0.1388888888888889 0.14 0.1388888888888889
0.17333333333333334 0.1711111111111111 0.17 0.17 0.16777777777777778 0.16666666666666666 0.16111111111111112 0.15888888888888889 0.16111111111111112 0.16444444444444445 0.16555555555555557 0.16777777777777778 0.16666666666666666 0.1688888888888889 0.17333333333333334 0.17555555555555555 0.1811111111111111 0.18222222222222223 0.18 0.17222222222222222 0.1688888888888889 0.16555555555555557 0.16555555555555557 0.16555555555555557 0.16555555555555557 0.16444444444444445 0.16333333333333333 0.16111111111111112 0.16 0.15888888888888889 0.15888888888888889 0.16111111111111112 0.1622222222222222 0.16111111111111112 0.15888888888888889 0.15666666666666668 0.15555555555555556 0.15777777777777777 0.15888888888888889 0.15888888888888889 0.15888888888888889 0.15777777777777777 0.15333333333333332 0.14666666666666667 0.1388888888888889 0.13666666666666666 0.13555555555555557 0.13666666666666666 0.13333333333333333 0.1288888888888889 0.12444444444444444 0.12444444444444444 0.12666666666666668 0.1288888888888889 0.12777777777777777 0.12555555555555556 0.12111111111111111 0.12111111111111111 0.12222222222222222 0.12111111111111111 0.11888888888888889 0.11555555555555555 0.11555555555555555 0.11222222222222222 0.10777777777777778 0.10666666666666667 0.10333333333333333 0.10111111111111111 0.10222222222222223 0.10333333333333333 0.10444444444444445 0.10555555555555556 0.11222222222222222 0.11777777777777777 0.12 0.12 0.12111111111111111 0.12 0.11777777777777777 0.11777777777777777 0.12 0.12444444444444444 0.12555555555555556 0.12444444444444444 0.12444444444444444 0.12555555555555556 0.12444444444444444 0.12333333333333334 0.12666666666666668 0.1288888888888889 0.13 0.12444444444444444 0.12222222222222222 0.12111111111111111 0.11777777777777777 0.11555555555555555 0.11666666666666667 0.11888888888888889 0.11888888888888889 0.12 0.12 0.12 0.12555555555555556 0.12777777777777777 0.12777777777777777 0.12444444444444444 0.12444444444444444 0.12222222222222222 0.12 0.12 0.12222222222222222 0.12333333333333334 0.12333333333333334 0.12333333333333334 0.12111111111111111 0.12111111111111111 0.11888888888888889 0.11666666666666667 0.11444444444444445 0.11333333333333333 0.11555555555555555 0.11888888888888889 0.12444444444444444 0.12666666666666668 0.13 0.13333333333333333 0.13555555555555557 0.13777777777777778 0.13555555555555557 0.13 0.12666666666666668 0.12666666666666668 0.1322222222222222 0.1322222222222222 0.1322222222222222 0.1322222222222222 0.1322222222222222 0.13555555555555557 0.13444444444444445 0.13111111111111112 0.1322222222222222 0.13444444444444445 0.1322222222222222 0.12777777777777777 0.12666666666666668 0.12444444444444444 0.12444444444444444 0.12777777777777777 0.12777777777777777 0.12555555555555556 0.12555555555555556 0.13 0.13333333333333333 0.13333333333333333 0.13555555555555557 0.14222222222222222 0.14222222222222222 0.13777777777777778 0.1388888888888889 0.13666666666666666 0.13666666666666666 0.13777777777777778 0.14
0.17333333333333334 0.17333333333333334 0.17222222222222222 0.17222222222222222 0.17 0.1688888888888889 0.16 0.15666666666666668 0.16 0.16444444444444445 0.1688888888888889 0.16666666666666666 0.16555555555555557 0.17 0.17333333333333334 0.17555555555555555 0.1811111111111111 0.18444444444444444 0.18333333333333332 0.17888888888888888 0.17444444444444446 0.1688888888888889 0.16555555555555557 0.16444444444444445 0.16333333333333333 0.16333333333333333 0.16333333333333333 0.16111111111111112 0.15888888888888889 0.15666666666666668 0.15666666666666668 0.16111111111111112 0.1622222222222222 0.16 0.15777777777777777 0.15444444444444444 0.1511111111111111 0.15222222222222223 0.15666666666666668 0.16 0.16111111111111112 0.15666666666666668 0.15333333333333332 0.14 0.13666666666666666 0.13333333333333333 0.13333333333333333 0.13 0.12777777777777777 0.12555555555555556 0.12222222222222222 0.12333333333333334 0.12666666666666668 0.12777777777777777 0.12666666666666668 0.12444444444444444 0.12 0.12111111111111111 0.12222222222222222 0.12222222222222222 0.11888888888888889 0.11555555555555555 0.11444444444444445 0.11 0.10444444444444445 0.1 0.09888888888888889 0.1 0.10111111111111111 0.10333333333333333 0.10555555555555556 0.10555555555555556 0.11 0.11333333333333333 0.11666666666666667 0.11777777777777777 0.11777777777777777 0.11777777777777777 0.11777777777777777 0.11777777777777777 0.12 0.12222222222222222 0.12444444444444444 0.12222222222222222 0.12222222222222222 0.12222222222222222 0.12222222222222222 0.12222222222222222 0.12555555555555556 0.12777777777777777 0.12666666666666668 0.12444444444444444 0.11888888888888889 0.11666666666666667 0.11555555555555555 0.11444444444444445 0.11555555555555555 0.11777777777777777 0.11888888888888889 0.12 0.12111111111111111 0.12111111111111111 0.12222222222222222 0.12444444444444444 0.12444444444444444 0.12444444444444444 0.12333333333333334 0.12333333333333334 0.12111111111111111 0.12111111111111111 0.12111111111111111 0.12222222222222222 0.12333333333333334 0.12333333333333334 0.12222222222222222 0.11888888888888889 0.11666666666666667 0.11333333333333333 0.11222222222222222 0.11333333333333333 0.11666666666666667 0.12 0.12555555555555556 0.13 0.13444444444444445 0.13666666666666666 0.13666666666666666 0.1388888888888889 0.13666666666666666 0.13333333333333333 0.12777777777777777 0.1288888888888889 0.1322222222222222 0.1322222222222222 0.1322222222222222 0.13444444444444445 0.13444444444444445 0.13555555555555557 0.13555555555555557 0.13333333333333333 0.1322222222222222 0.13555555555555557 0.13444444444444445 0.1322222222222222 0.13 0.12777777777777777 0.12666666666666668 0.1288888888888889 0.1288888888888889 0.12555555555555556 0.12333333333333334 0.12555555555555556 0.1288888888888889 0.12777777777777777 0.13 0.13444444444444445 0.13666666666666666 0.13555555555555557 0.13666666666666666 0.13777777777777778 0.1388888888888889 0.1388888888888889 0.14
0.17 0.17444444444444446 0.17444444444444446 0.17333333333333334 0.17 0.1688888888888889 0.16 0.15888888888888889 0.16 0.16555555555555557 0.1688888888888889 0.16777777777777778 0.16666666666666666 0.17 0.17333333333333334 0.17555555555555555 0.18 0.1811111111111111 0.18222222222222223 0.17888888888888888 0.17555555555555555 0.1688888888888889 0.16666666666666666 0.16555555555555557 0.16444444444444445 0.16444444444444445 0.16333333333333333 0.16111111111111112 0.15888888888888889 0.15777777777777777 0.15777777777777777 0.16 0.16 0.16 0.15666666666666668 0.15222222222222223 0.14666666666666667 0.14666666666666667 0.15 0.15555555555555556 0.15666666666666668 0.14888888888888888 0.14555555555555555 0.14 0.13333333333333333 0.1322222222222222 0.1322222222222222 0.1288888888888889 0.12444444444444444 0.12444444444444444 0.12222222222222222 0.12555555555555556 0.12777777777777777 0.12777777777777777 0.12555555555555556 0.12333333333333334 0.12111111111111111 0.12222222222222222 0.12333333333333334 0.12333333333333334 0.11888888888888889 0.11777777777777777 0.11555555555555555 0.1111111111111111 0.10222222222222223 0.09777777777777778 0.09666666666666666 0.1 0.1 0.10222222222222223 0.10555555555555556 0.10888888888888888 0.11222222222222222 0.11333333333333333 0.11444444444444445 0.11555555555555555 0.11555555555555555 0.11666666666666667 0.11777777777777777 0.11777777777777777 0.12 0.12222222222222222 0.12333333333333334 0.12222222222222222 0.12222222222222222 0.12222222222222222 0.12 0.11888888888888889 0.12222222222222222 0.12222222222222222 0.12222222222222222 0.12 0.11888888888888889 0.11666666666666667 0.11222222222222222 0.11333333333333333 0.11555555555555555 0.11888888888888889 0.12 0.12111111111111111 0.12111111111111111 0.12 0.11666666666666667 0.11888888888888889 0.12111111111111111 0.12222222222222222 0.12222222222222222 0.12222222222222222 0.12 0.12 0.11888888888888889 0.11888888888888889 0.11888888888888889 0.12 0.12 0.11777777777777777 0.11555555555555555 0.11222222222222222 0.1111111111111111 0.11222222222222222 0.11555555555555555 0.12 0.12666666666666668 0.13111111111111112 0.13333333333333333 0.13444444444444445 0.13555555555555557 0.13666666666666666 0.13777777777777778 0.13555555555555557 0.13333333333333333 0.1322222222222222 0.1322222222222222 0.13 0.13 0.13333333333333333 0.13444444444444445 0.1322222222222222 0.1322222222222222 0.1322222222222222 0.13444444444444445 0.13555555555555557 0.13555555555555557 0.13444444444444445 0.13444444444444445 0.13333333333333333 0.13111111111111112 0.13 0.13 0.12666666666666668 0.12444444444444444 0.12444444444444444 0.12555555555555556 0.12555555555555556 0.1288888888888889 0.1322222222222222 0.13333333333333333 0.13444444444444445 0.13777777777777778 0.14 0.14 0.14 0.1388888888888889
0.17 0.17555555555555555 0.17666666666666667 0.17444444444444446 0.1711111111111111 0.1688888888888889 0.16333333333333333 0.1622222222222222 0.16333333333333333 0.16555555555555557 0.16777777777777778 0.16777777777777778 0.16555555555555557 0.1688888888888889 0.1711111111111111 0.17444444444444446 0.17666666666666667 0.17777777777777778 0.17777777777777778 0.17666666666666667 0.17444444444444446 0.16777777777777778 0.16666666666666666 0.16555555555555557 0.16444444444444445 0.16333333333333333 0.1622222222222222 0.16 0.15888888888888889 0.15888888888888889 0.15888888888888889 0.15555555555555556 0.15555555555555556 0.15666666666666668 0.15555555555555556 0.15222222222222223 0.14666666666666667 0.14555555555555555 0.14666666666666667 0.15 0.15 0.14222222222222222 0.13777777777777778 0.13666666666666666 0.13333333333333333 0.1322222222222222 0.1322222222222222 0.1288888888888889 0.12444444444444444 0.12333333333333334 0.12444444444444444 0.1288888888888889 0.13 0.1288888888888889 0.12666666666666668 0.12444444444444444 0.12222222222222222 0.12222222222222222 0.12222222222222222 0.12111111111111111 0.11777777777777777 0.11555555555555555 0.11666666666666667 0.11222222222222222 0.10666666666666667 0.09888888888888889 0.09888888888888889 0.10111111111111111 0.10111111111111111 0.10333333333333333 0.10666666666666667 0.11 0.11222222222222222 0.11333333333333333 0.11222222222222222 0.11333333333333333 0.11222222222222222 0.11444444444444445 0.11666666666666667 0.11555555555555555 0.11777777777777777 0.12111111111111111 0.12333333333333334 0.12222222222222222 0.12333333333333334 0.12222222222222222 0.11888888888888889 0.11555555555555555 0.11555555555555555 0.11777777777777777 0.11888888888888889 0.11777777777777777 0.11444444444444445 0.11222222222222222 0.11222222222222222 0.11444444444444445 0.11666666666666667 0.11888888888888889 0.12111111111111111 0.12222222222222222 0.12111111111111111 0.12 0.11555555555555555 0.11777777777777777 0.12111111111111111 0.12111111111111111 0.12111111111111111 0.12111111111111111 0.12 0.11777777777777777 0.11666666666666667 0.11666666666666667 0.11666666666666667 0.11777777777777777 0.11777777777777777 0.11777777777777777 0.11777777777777777 0.11444444444444445 0.1111111111111111 0.10888888888888888 0.11222222222222222 0.11888888888888889 0.13 0.13111111111111112 0.13111111111111112 0.1322222222222222 0.13111111111111112 0.1322222222222222 0.13333333333333333 0.13333333333333333 0.13333333333333333 0.13333333333333333 0.1288888888888889 0.12555555555555556 0.12666666666666668 0.1288888888888889 0.13 0.13 0.12666666666666668 0.1288888888888889 0.13111111111111112 0.13444444444444445 0.13555555555555557 0.13444444444444445 0.13444444444444445 0.13444444444444445 0.13444444444444445 0.13333333333333333 0.13444444444444445 0.1322222222222222 0.13111111111111112 0.13 0.12777777777777777 0.12666666666666668 0.1288888888888889 0.13111111111111112 0.13333333333333333 0.13555555555555557 0.13666666666666666 0.13777777777777778 0.1388888888888889 0.1388888888888889 0.1388888888888889
0.1711111111111111 0.17666666666666667 0.17666666666666667 0.17444444444444446 0.17222222222222222 0.1711111111111111 0.16444444444444445 0.16111111111111112 0.16 0.15888888888888889 0.1622222222222222 0.16444444444444445 0.16444444444444445 0.16666666666666666 0.1688888888888889 0.1711111111111111 0.17333333333333334 0.17333333333333334 0.17444444444444446 0.17333333333333334 0.17333333333333334 0.16777777777777778 0.16666666666666666 0.16555555555555557 0.16444444444444445 0.16111111111111112 0.15888888888888889 0.15888888888888889 0.15888888888888889 0.15777777777777777 0.15777777777777777 0.15444444444444444 0.15333333333333332 0.15444444444444444 0.15444444444444444 0.15222222222222223 0.15 0.14555555555555555 0.14333333333333334 0.14333333333333334 0.14444444444444443 0.14444444444444443 0.13777777777777778 0.13777777777777778 0.13555555555555557 0.13444444444444445 0.13333333333333333 0.12555555555555556 0.12333333333333334 0.12222222222222222 0.12555555555555556 0.12777777777777777 0.13 0.1288888888888889 0.12777777777777777 0.12666666666666668 0.12333333333333334 0.12111111111111111 0.11888888888888889 0.11777777777777777 0.11555555555555555 0.11555555555555555 0.11555555555555555 0.1111111111111111 0.10555555555555556 0.10111111111111111 0.09888888888888889 0.1 0.10333333333333333 0.10444444444444445 0.10777777777777778 0.10888888888888888 0.11444444444444445 0.11222222222222222 0.1111111111111111 0.11 0.11 0.11222222222222222 0.11222222222222222 0.11333333333333333 0.11333333333333333 0.11777777777777777 0.12111111111111111 0.12222222222222222 0.12444444444444444 0.12333333333333334 0.12 0.11555555555555555 0.11444444444444445 0.11333333333333333 0.11444444444444445 0.11555555555555555 0.11444444444444445 0.11222222222222222 0.11222222222222222 0.11444444444444445 0.11888888888888889 0.12 0.12222222222222222 0.12333333333333334 0.12333333333333334 0.11888888888888889 0.11333333333333333 0.11777777777777777 0.12 0.12 0.12111111111111111 0.12222222222222222 0.12 0.11777777777777777 0.11555555555555555 0.11555555555555555 0.11666666666666667 0.11666666666666667 0.11777777777777777 0.11777777777777777 0.11777777777777777 0.11666666666666667 0.11333333333333333 0.1111111111111111 0.1111111111111111 0.12 0.1322222222222222 0.1322222222222222 0.1322222222222222 0.13111111111111112 0.13 0.1288888888888889 0.13 0.1288888888888889 0.13 0.13111111111111112 0.13 0.12444444444444444 0.12444444444444444 0.12666666666666668 0.12666666666666668 0.12666666666666668 0.12555555555555556 0.12666666666666668 0.1288888888888889 0.1322222222222222 0.13333333333333333 0.13333333333333333 0.13444444444444445 0.13333333333333333 0.13444444444444445 0.13555555555555557 0.13555555555555557 0.13555555555555557 0.13666666666666666 0.13555555555555557 0.13111111111111112 0.13 0.1322222222222222 0.13555555555555557 0.1388888888888889 0.13666666666666666 0.13666666666666666 0.13666666666666666 0.13666666666666666 0.13777777777777778 0.1388888888888889
0.17222222222222222 0.17555555555555555 0.17555555555555555 0.17555555555555555 0.17444444444444446 0.1711111111111111 0.16111111111111112 0.15777777777777777 0.15333333333333332 0.15444444444444444 0.15777777777777777 0.1622222222222222 0.16333333333333333 0.16555555555555557 0.16777777777777778 0.1688888888888889 0.17222222222222222 0.17333333333333334 0.1711111111111111 0.1711111111111111 0.1711111111111111 0.16777777777777778 0.16666666666666666 0.16444444444444445 0.16333333333333333 0.16111111111111112 0.15777777777777777 0.15777777777777777 0.15777777777777777 0.15666666666666668 0.15777777777777777 0.15888888888888889 0.15555555555555556 0.15555555555555556 0.15444444444444444 0.15222222222222223 0.1511111111111111 0.14666666666666667 0.1411111111111111 0.1388888888888889 0.14 0.14222222222222222 0.14 0.1388888888888889 0.13777777777777778 0.13444444444444445 0.13 0.12555555555555556 0.12333333333333334 0.12333333333333334 0.12555555555555556 0.12777777777777777 0.12777777777777777 0.12555555555555556 0.12555555555555556 0.12333333333333334 0.12111111111111111 0.11777777777777777 0.11666666666666667 0.11666666666666667 0.11777777777777777 0.11777777777777777 0.11222222222222222 0.10666666666666667 0.10222222222222223 0.1 0.09888888888888889 0.09666666666666666 0.1 0.10666666666666667 0.10888888888888888 0.11 0.11222222222222222 0.1111111111111111 0.11 0.11 0.1111111111111111 0.11222222222222222 0.11333333333333333 0.11222222222222222 0.11333333333333333 0.11444444444444445 0.12 0.12333333333333334 0.12555555555555556 0.12333333333333334 0.12111111111111111 0.11555555555555555 0.11333333333333333 0.11222222222222222 0.11333333333333333 0.11555555555555555 0.11666666666666667 0.11444444444444445 0.11444444444444445 0.11666666666666667 0.11888888888888889 0.12 0.12222222222222222 0.12444444444444444 0.12333333333333334 0.11888888888888889 0.11555555555555555 0.11777777777777777 0.12 0.12 0.12222222222222222 0.12111111111111111 0.11777777777777777 0.11444444444444445 0.11333333333333333 0.11444444444444445 0.11888888888888889 0.11777777777777777 0.11555555555555555 0.11444444444444445 0.11444444444444445 0.11555555555555555 0.11555555555555555 0.11444444444444445 0.11555555555555555 0.12 0.12666666666666668 0.13333333333333333 0.13333333333333333 0.13111111111111112 0.12777777777777777 0.12555555555555556 0.12333333333333334 0.12444444444444444 0.12555555555555556 0.12777777777777777 0.12666666666666668 0.12333333333333334 0.12333333333333334 0.12333333333333334 0.12333333333333334 0.12444444444444444 0.12777777777777777 0.13 0.13111111111111112 0.1322222222222222 0.13333333333333333 0.13111111111111112 0.1322222222222222 0.13333333333333333 0.13444444444444445 0.13444444444444445 0.13555555555555557 0.1388888888888889 0.1411111111111111 0.13777777777777778 0.13333333333333333 0.13777777777777778 0.13777777777777778 0.1388888888888889 0.14 0.13777777777777778 0.13777777777777778 0.13666666666666666 0.13666666666666666 0.13666666666666666 0.13777777777777778
0.17333333333333334 0.17555555555555555 0.17666666666666667 0.17666666666666667 0.17666666666666667 0.17222222222222222 0.16111111111111112 0.15777777777777777 0.15555555555555556 0.15333333333333332 0.15555555555555556 0.1622222222222222 0.16444444444444445 0.16666666666666666 0.1688888888888889 0.17 0.1711111111111111 0.1711111111111111 0.17 0.1688888888888889 0.1711111111111111 0.1711111111111111 0.16666666666666666 0.16444444444444445 0.16111111111111112 0.16 0.15888888888888889 0.15666666666666668 0.15555555555555556 0.15555555555555556 0.15777777777777777 0.15888888888888889 0.15666666666666668 0.15555555555555556 0.15444444444444444 0.1511111111111111 0.14888888888888888 0.14666666666666667 0.1411111111111111 0.13555555555555557 0.13666666666666666 0.13666666666666666 0.14 0.13777777777777778 0.13555555555555557 0.1322222222222222 0.12777777777777777 0.12444444444444444 0.12333333333333334 0.12333333333333334 0.12444444444444444 0.12555555555555556 0.12555555555555556 0.12333333333333334 0.12222222222222222 0.12 0.11777777777777777 0.11777777777777777 0.11555555555555555 0.11777777777777777 0.12111111111111111 0.11888888888888889 0.11222222222222222 0.10555555555555556 0.09888888888888889 0.09777777777777778 0.09777777777777778 0.09555555555555556 0.1 0.10333333333333333 0.10666666666666667 0.10666666666666667 0.10777777777777778 0.10888888888888888 0.11 0.11 0.1111111111111111 0.11222222222222222 0.11333333333333333 0.11444444444444445 0.11333333333333333 0.11333333333333333 0.11666666666666667 0.12111111111111111 0.12444444444444444 0.12 0.11777777777777777 0.11444444444444445 0.11333333333333333 0.11444444444444445 0.11444444444444445 0.11666666666666667 0.11666666666666667 0.11444444444444445 0.11444444444444445 0.11777777777777777 0.12 0.12111111111111111 0.12222222222222222 0.12444444444444444 0.12333333333333334 0.11888888888888889 0.11888888888888889 0.12111111111111111 0.12111111111111111 0.12111111111111111 0.12222222222222222 0.12222222222222222 0.11444444444444445 0.11222222222222222 0.1111111111111111 0.11333333333333333 0.11888888888888889 0.11888888888888889 0.11555555555555555 0.11333333333333333 0.11222222222222222 0.11444444444444445 0.11444444444444445 0.11444444444444445 0.11555555555555555 0.11888888888888889 0.12333333333333334 0.1288888888888889 0.1288888888888889 0.12666666666666668 0.12222222222222222 0.12 0.12 0.12333333333333334 0.12555555555555556 0.12555555555555556 0.12444444444444444 0.12333333333333334 0.12222222222222222 0.12222222222222222 0.12333333333333334 0.12444444444444444 0.13 0.13111111111111112 0.13111111111111112 0.1322222222222222 0.13333333333333333 0.1322222222222222 0.1322222222222222 0.13333333333333333 0.13444444444444445 0.13444444444444445 0.1388888888888889 0.14222222222222222 0.14333333333333334 0.14 0.1388888888888889 0.14 0.14 0.1411111111111111 0.14 0.1388888888888889 0.14 0.1388888888888889 0.13666666666666666 0.13555555555555557 0.13444444444444445
0.17333333333333334 0.17444444444444446 0.17444444444444446 0.17444444444444446 0.17555555555555555 0.1711111111111111 0.16333333333333333 0.1622222222222222 0.15777777777777777 0.15222222222222223 0.15333333333333332 0.15888888888888889 0.16666666666666666 0.1688888888888889 0.1688888888888889 0.1688888888888889 0.16777777777777778 0.16555555555555557 0.16555555555555557 0.16777777777777778 0.17 0.1711111111111111 0.1688888888888889 0.16444444444444445 0.16111111111111112 0.16 0.15888888888888889 0.15777777777777777 0.15666666666666668 0.15666666666666668 0.15888888888888889 0.16 0.15666666666666668 0.15333333333333332 0.1511111111111111 0.15 0.14888888888888888 0.14777777777777779 0.14444444444444443 0.1388888888888889 0.13555555555555557 0.13666666666666666 0.13666666666666666 0.13333333333333333 0.13 0.1288888888888889 0.12777777777777777 0.12555555555555556 0.12333333333333334 0.12333333333333334 0.12444444444444444 0.12222222222222222 0.12333333333333334 0.12222222222222222 0.12111111111111111 0.12 0.11777777777777777 0.11555555555555555 0.11555555555555555 0.11666666666666667 0.11777777777777777 0.11777777777777777 0.10888888888888888 0.10333333333333333 0.09666666666666666 0.09555555555555556 0.09666666666666666 0.09777777777777778 0.1 0.10222222222222223 0.10444444444444445 0.10555555555555556 0.10666666666666667 0.10777777777777778 0.10888888888888888 0.10888888888888888 0.11 0.1111111111111111 0.11333333333333333 0.11444444444444445 0.11444444444444445 0.11333333333333333 0.11333333333333333 0.11777777777777777 0.12 0.11555555555555555 0.1111111111111111 0.11444444444444445 0.11555555555555555 0.11555555555555555 0.11555555555555555 0.11555555555555555 0.11555555555555555 0.11444444444444445 0.11555555555555555 0.11777777777777777 0.12 0.12222222222222222 0.12444444444444444 0.12444444444444444 0.12333333333333334 0.12111111111111111 0.12111111111111111 0.12333333333333334 0.12222222222222222 0.12111111111111111 0.12111111111111111 0.11888888888888889 0.11333333333333333 0.1111111111111111 0.1111111111111111 0.11444444444444445 0.12 0.12 0.11666666666666667 0.11333333333333333 0.11333333333333333 0.11555555555555555 0.11555555555555555 0.11444444444444445 0.11666666666666667 0.11888888888888889 0.12111111111111111 0.12222222222222222 0.12222222222222222 0.12 0.11777777777777777 0.11666666666666667 0.11777777777777777 0.12333333333333334 0.12333333333333334 0.12333333333333334 0.12333333333333334 0.12333333333333334 0.12444444444444444 0.12333333333333334 0.12333333333333334 0.12444444444444444 0.13 0.13111111111111112 0.13 0.13 0.13111111111111112 0.13555555555555557 0.13666666666666666 0.13666666666666666 0.13666666666666666 0.13555555555555557 0.1388888888888889 0.14444444444444443 0.14333333333333334 0.14222222222222222 0.14 0.13666666666666666 0.13777777777777778 0.14 0.1411111111111111 0.14 0.1411111111111111 0.14 0.13777777777777778 0.13333333333333333 0.1322222222222222
0.17333333333333334 0.17444444444444446 0.17444444444444446 0.17222222222222222 0.1711111111111111 0.17 0.16555555555555557 0.16333333333333333 0.15777777777777777 0.1511111111111111 0.15222222222222223 0.15777777777777777 0.16444444444444445 0.16666666666666666 0.16777777777777778 0.16666666666666666 0.16666666666666666 0.16444444444444445 0.16555555555555557 0.16666666666666666 0.1688888888888889 0.17 0.16777777777777778 0.16444444444444445 0.1622222222222222 0.16 0.16 0.15777777777777777 0.15666666666666668 0.15777777777777777 0.15888888888888889 0.16 0.15666666666666668 0.15222222222222223 0.15 0.14888888888888888 0.15 0.15 0.14777777777777779 0.14333333333333334 0.1411111111111111 0.1388888888888889 0.13555555555555557 0.13 0.12666666666666668 0.12666666666666668 0.12777777777777777 0.12555555555555556 0.12333333333333334 0.12222222222222222 0.12222222222222222 0.12222222222222222 0.12 0.11888888888888889 0.12111111111111111 0.12111111111111111 0.12 0.11444444444444445 0.11222222222222222 0.11222222222222222 0.11222222222222222 0.1111111111111111 0.10555555555555556 0.1 0.09666666666666666 0.09666666666666666 0.09555555555555556 0.09888888888888889 0.10111111111111111 0.10333333333333333 0.10555555555555556 0.10777777777777778 0.10666666666666667 0.10555555555555556 0.10666666666666667 0.10777777777777778 0.10888888888888888 0.10888888888888888 0.11 0.1111111111111111 0.11333333333333333 0.11444444444444445 0.11333333333333333 0.11222222222222222 0.11222222222222222 0.11 0.11 0.1111111111111111 0.11666666666666667 0.11777777777777777 0.11777777777777777 0.11555555555555555 0.11555555555555555 0.11666666666666667 0.11777777777777777 0.11888888888888889 0.12111111111111111 0.12333333333333334 0.12444444444444444 0.12555555555555556 0.12333333333333334 0.12222222222222222 0.12222222222222222 0.12333333333333334 0.12111111111111111 0.12 0.11888888888888889 0.11777777777777777 0.11444444444444445 0.11222222222222222 0.11333333333333333 0.11666666666666667 0.12 0.11777777777777777 0.11555555555555555 0.1111111111111111 0.1111111111111111 0.11333333333333333 0.11666666666666667 0.11666666666666667 0.11777777777777777 0.12 0.12111111111111111 0.11888888888888889 0.12 0.11777777777777777 0.11666666666666667 0.11777777777777777 0.11888888888888889 0.11888888888888889 0.12 0.12111111111111111 0.12111111111111111 0.12555555555555556 0.12666666666666668 0.12666666666666668 0.12555555555555556 0.12666666666666668 0.1322222222222222 0.1322222222222222 0.13111111111111112 0.13 0.13111111111111112 0.13666666666666666 0.13777777777777778 0.1388888888888889 0.1388888888888889 0.1388888888888889 0.14222222222222222 0.14444444444444443 0.14333333333333334 0.14222222222222222 0.1388888888888889 0.13555555555555557 0.13555555555555557 0.1388888888888889 0.1411111111111111 0.14 0.1388888888888889 0.1388888888888889 0.13555555555555557 0.13111111111111112 0.1288888888888889
0.17444444444444446 0.17333333333333334 0.17222222222222222 0.17222222222222222 0.17222222222222222 0.17 0.16555555555555557 0.16 0.15777777777777777 0.15333333333333332 0.15333333333333332 0.15666666666666668 0.16111111111111112 0.1622222222222222 0.16333333333333333 0.16555555555555557 0.16666666666666666 0.1688888888888889 0.1688888888888889 0.17 0.1688888888888889 0.16777777777777778 0.16444444444444445 0.16333333333333333 0.16111111111111112 0.16111111111111112 0.16 0.15555555555555556 0.15555555555555556 0.15666666666666668 0.15888888888888889 0.16 0.15666666666666668 0.15222222222222223 0.15 0.1511111111111111 0.1511111111111111 0.15 0.15 0.14666666666666667 0.14444444444444443 0.1411111111111111 0.13555555555555557 0.1322222222222222 0.1288888888888889 0.12777777777777777 0.12777777777777777 0.12444444444444444 0.12222222222222222 0.12111111111111111 0.12 0.11888888888888889 0.12 0.11888888888888889 0.11777777777777777 0.12 0.11888888888888889 0.1111111111111111 0.11 0.11 0.10888888888888888 0.10777777777777778 0.10333333333333333 0.09888888888888889 0.09666666666666666 0.09555555555555556 0.09666666666666666 0.1 0.10333333333333333 0.10444444444444445 0.10777777777777778 0.10777777777777778 0.10777777777777778 0.10555555555555556 0.10555555555555556 0.10666666666666667 0.10777777777777778 0.10666666666666667 0.10666666666666667 0.10888888888888888 0.11 0.11333333333333333 0.11444444444444445 0.10888888888888888 0.10555555555555556 0.10666666666666667 0.10777777777777778 0.1111111111111111 0.11555555555555555 0.11777777777777777 0.11888888888888889 0.11888888888888889 0.12 0.12111111111111111 0.12111111111111111 0.12222222222222222 0.12333333333333334 0.12333333333333334 0.12444444444444444 0.12666666666666668 0.12555555555555556 0.12222222222222222 0.12222222222222222 0.12444444444444444 0.12333333333333334 0.12 0.11888888888888889 0.11888888888888889 0.11666666666666667 0.11555555555555555 0.11444444444444445 0.11555555555555555 0.11666666666666667 0.11222222222222222 0.11 0.10777777777777778 0.10666666666666667 0.10777777777777778 0.11555555555555555 0.11777777777777777 0.11888888888888889 0.12 0.12222222222222222 0.12111111111111111 0.12111111111111111 0.11777777777777777 0.11666666666666667 0.11777777777777777 0.11777777777777777 0.11888888888888889 0.11888888888888889 0.12 0.12222222222222222 0.12777777777777777 0.13 0.13 0.13 0.13111111111111112 0.13333333333333333 0.13444444444444445 0.1322222222222222 0.1322222222222222 0.13333333333333333 0.13666666666666666 0.13777777777777778 0.13777777777777778 0.14 0.1411111111111111 0.14444444444444443 0.14444444444444443 0.14333333333333334 0.14222222222222222 0.1411111111111111 0.1388888888888889 0.13666666666666666 0.13777777777777778 0.14 0.1388888888888889 0.13777777777777778 0.13666666666666666 0.13444444444444445 0.1288888888888889 0.12333333333333334
0.17555555555555555 0.17444444444444446 0.17222222222222222 0.1711111111111111 0.17222222222222222 0.1711111111111111 0.16777777777777778 0.16 0.15555555555555556 0.15333333333333332 0.15333333333333332 0.15666666666666668 0.15888888888888889 0.15888888888888889 0.16 0.1622222222222222 0.16555555555555557 0.17222222222222222 0.17333333333333334 0.1711111111111111 0.1688888888888889 0.16555555555555557 0.16 0.16 0.16111111111111112 0.1622222222222222 0.16111111111111112 0.15555555555555556 0.15555555555555556 0.15777777777777777 0.15888888888888889 0.16 0.15555555555555556 0.15222222222222223 0.15222222222222223 0.15333333333333332 0.15333333333333332 0.15333333333333332 0.1511111111111111 0.14888888888888888 0.14666666666666667 0.14333333333333334 0.13666666666666666 0.13555555555555557 0.13333333333333333 0.1288888888888889 0.12666666666666668 0.12 0.12 0.11888888888888889 0.11777777777777777 0.11777777777777777 0.11777777777777777 0.11777777777777777 0.11777777777777777 0.11666666666666667 0.11444444444444445 0.11 0.10888888888888888 0.10888888888888888 0.10666666666666667 0.10555555555555556 0.10444444444444445 0.09666666666666666 0.09444444444444444 0.09444444444444444 0.09555555555555556 0.09777777777777778 0.10222222222222223 0.10555555555555556 0.10666666666666667 0.10777777777777778 0.10666666666666667 0.10555555555555556 0.10555555555555556 0.10444444444444445 0.10555555555555556 0.10666666666666667 0.10666666666666667 0.10888888888888888 0.10888888888888888 0.1111111111111111 0.11333333333333333 0.10222222222222223 0.10444444444444445 0.10555555555555556 0.10888888888888888 0.1111111111111111 0.11444444444444445 0.11666666666666667 0.11888888888888889 0.12111111111111111 0.12333333333333334 0.12444444444444444 0.12555555555555556 0.12666666666666668 0.12666666666666668 0.12555555555555556 0.12333333333333334 0.12555555555555556 0.12666666666666668 0.12444444444444444 0.12333333333333334 0.12444444444444444 0.12444444444444444 0.12111111111111111 0.11888888888888889 0.11888888888888889 0.11777777777777777 0.11666666666666667 0.11555555555555555 0.11444444444444445 0.11222222222222222 0.10666666666666667 0.10888888888888888 0.10888888888888888 0.10777777777777778 0.11 0.11777777777777777 0.12 0.12222222222222222 0.12222222222222222 0.12222222222222222 0.12222222222222222 0.12222222222222222 0.11888888888888889 0.11555555555555555 0.11555555555555555 0.11777777777777777 0.11777777777777777 0.11888888888888889 0.12111111111111111 0.12222222222222222 0.12777777777777777 0.13 0.13111111111111112 0.13111111111111112 0.1322222222222222 0.13444444444444445 0.13555555555555557 0.13555555555555557 0.13555555555555557 0.13555555555555557 0.13666666666666666 0.13777777777777778 0.13777777777777778 0.14 0.14333333333333334 0.14555555555555555 0.14555555555555555 0.14444444444444443 0.14333333333333334 0.1411111111111111 0.1411111111111111 0.13666666666666666 0.13666666666666666 0.13777777777777778 0.13777777777777778 0.13666666666666666 0.13555555555555557 0.13333333333333333 0.12666666666666668 0.12111111111111111
0.17555555555555555 0.17444444444444446 0.1711111111111111 0.17333333333333334 0.17333333333333334 0.1711111111111111 0.16777777777777778 0.1622222222222222 0.15888888888888889 0.15444444444444444 0.15222222222222223 0.15333333333333332 0.15888888888888889 0.15777777777777777 0.15888888888888889 0.16111111111111112 0.16555555555555557 0.17333333333333334 0.17444444444444446 0.17444444444444446 0.1711111111111111 0.16666666666666666 0.15666666666666668 0.15777777777777777 0.16111111111111112 0.16444444444444445 0.16333333333333333 0.15777777777777777 0.15777777777777777 0.15777777777777777 0.15777777777777777 0.15777777777777777 0.15333333333333332 0.15333333333333332 0.15333333333333332 0.15444444444444444 0.15555555555555556 0.15333333333333332 0.15333333333333332 0.15222222222222223 0.15 0.14777777777777779 0.14 0.1388888888888889 0.13555555555555557 0.1322222222222222 0.1288888888888889 0.12 0.11777777777777777 0.11777777777777777 0.11777777777777777 0.11888888888888889 0.12 0.11777777777777777 0.11666666666666667 0.11666666666666667 0.11333333333333333 0.1111111111111111 0.10888888888888888 0.10666666666666667 0.10444444444444445 0.10111111111111111 0.1 0.09444444444444444 0.09222222222222222 0.09222222222222222 0.09333333333333334 0.09555555555555556 0.10222222222222223 0.10333333333333333 0.10333333333333333 0.10444444444444445 0.10444444444444445 0.10555555555555556 0.10777777777777778 0.10666666666666667 0.10666666666666667 0.10888888888888888 0.10888888888888888 0.10888888888888888 0.10888888888888888 0.11 0.1111111111111111 0.11222222222222222 0.11 0.1111111111111111 0.11222222222222222 0.11333333333333333 0.11555555555555555 0.11666666666666667 0.11777777777777777 0.11777777777777777 0.11888888888888889 0.12555555555555556 0.13 0.13111111111111112 0.13 0.12777777777777777 0.12111111111111111 0.12111111111111111 0.12333333333333334 0.12222222222222222 0.12111111111111111 0.12555555555555556 0.12444444444444444 0.12222222222222222 0.11888888888888889 0.11666666666666667 0.11555555555555555 0.11555555555555555 0.11444444444444445 0.11444444444444445 0.11444444444444445 0.11 0.1111111111111111 0.11333333333333333 0.11222222222222222 0.11333333333333333 0.12222222222222222 0.12666666666666668 0.12777777777777777 0.12555555555555556 0.12333333333333334 0.12222222222222222 0.12111111111111111 0.12 0.11666666666666667 0.11555555555555555 0.12111111111111111 0.12 0.11888888888888889 0.12 0.12222222222222222 0.12444444444444444 0.1288888888888889 0.1288888888888889 0.1288888888888889 0.13 0.13111111111111112 0.13666666666666666 0.13777777777777778 0.1388888888888889 0.1388888888888889 0.14 0.1388888888888889 0.1388888888888889 0.1411111111111111 0.14444444444444443 0.14666666666666667 0.14333333333333334 0.14333333333333334 0.14444444444444443 0.14222222222222222 0.1411111111111111 0.13555555555555557 0.13444444444444445 0.13444444444444445 0.13444444444444445 0.13444444444444445 0.13444444444444445 0.13444444444444445 0.13111111111111112 0.12333333333333334
0.17444444444444446 0.17222222222222222 0.1688888888888889 0.1688888888888889 0.17 0.17 0.16777777777777778 0.1622222222222222 0.16111111111111112 0.15333333333333332 0.14777777777777779 0.14666666666666667 0.15666666666666668 0.16 0.16111111111111112 0.1622222222222222 0.16333333333333333 0.17222222222222222 0.17444444444444446 0.17555555555555555 0.17222222222222222 0.1688888888888889 0.15777777777777777 0.15777777777777777 0.16111111111111112 0.1622222222222222 0.1622222222222222 0.15888888888888889 0.15888888888888889 0.15777777777777777 0.15666666666666668 0.15555555555555556 0.15222222222222223 0.15222222222222223 0.15333333333333332 0.15555555555555556 0.15666666666666668 0.15555555555555556 0.15555555555555556 0.15555555555555556 0.15222222222222223 0.14777777777777779 0.14444444444444443 0.1388888888888889 0.13777777777777778 0.13555555555555557 0.1322222222222222 0.12555555555555556 0.12 0.12111111111111111 0.12111111111111111 0.12111111111111111 0.12111111111111111 0.11888888888888889 0.11555555555555555 0.11444444444444445 0.11333333333333333 0.1111111111111111 0.10666666666666667 0.10555555555555556 0.10222222222222223 0.10111111111111111 0.1 0.09444444444444444 0.09333333333333334 0.09333333333333334 0.09444444444444444 0.09666666666666666 0.09888888888888889 0.09888888888888889 0.1 0.10111111111111111 0.10222222222222223 0.10888888888888888 0.11222222222222222 0.11555555555555555 0.11888888888888889 0.11888888888888889 0.11 0.10888888888888888 0.11 0.11 0.11444444444444445 0.12333333333333334 0.12333333333333334 0.11777777777777777 0.11444444444444445 0.11444444444444445 0.11777777777777777 0.11888888888888889 0.11777777777777777 0.11666666666666667 0.11777777777777777 0.12444444444444444 0.1288888888888889 0.13 0.1288888888888889 0.12777777777777777 0.12333333333333334 0.12222222222222222 0.12222222222222222 0.12111111111111111 0.12 0.12444444444444444 0.12444444444444444 0.12222222222222222 0.11888888888888889 0.11666666666666667 0.11333333333333333 0.11333333333333333 0.11333333333333333 0.11444444444444445 0.11333333333333333 0.11222222222222222 0.11222222222222222 0.11222222222222222 0.1111111111111111 0.11222222222222222 0.12555555555555556 0.1288888888888889 0.1288888888888889 0.12666666666666668 0.12444444444444444 0.12333333333333334 0.12222222222222222 0.12222222222222222 0.12111111111111111 0.12 0.12111111111111111 0.12222222222222222 0.12222222222222222 0.12222222222222222 0.12333333333333334 0.12444444444444444 0.12777777777777777 0.12666666666666668 0.12666666666666668 0.12777777777777777 0.13 0.13555555555555557 0.1388888888888889 0.1388888888888889 0.1388888888888889 0.1388888888888889 0.1388888888888889 0.13777777777777778 0.1411111111111111 0.14555555555555555 0.14444444444444443 0.14 0.14222222222222222 0.14333333333333334 0.14222222222222222 0.1388888888888889 0.13555555555555557 0.13444444444444445 0.13111111111111112 0.13111111111111112 0.1322222222222222 0.1322222222222222 0.1322222222222222 0.13111111111111112 0.12444444444444444
0.17 0.1688888888888889 0.16555555555555557 0.16555555555555557 0.16666666666666666 0.16666666666666666 0.16666666666666666 0.16555555555555557 0.16111111111111112 0.15444444444444444 0.14777777777777779 0.14444444444444443 0.15444444444444444 0.16 0.16333333333333333 0.16333333333333333 0.16444444444444445 0.1711111111111111 0.17333333333333334 0.17222222222222222 0.1688888888888889 0.16555555555555557 0.15444444444444444 0.15555555555555556 0.15777777777777777 0.15888888888888889 0.15777777777777777 0.15333333333333332 0.15444444444444444 0.15333333333333332 0.15222222222222223 0.15222222222222223 0.15222222222222223 0.1511111111111111 0.15222222222222223 0.15444444444444444 0.15666666666666668 0.15666666666666668 0.15777777777777777 0.15888888888888889 0.15666666666666668 0.1511111111111111 0.14777777777777779 0.1411111111111111 0.1411111111111111 0.1411111111111111 0.13444444444444445 0.12666666666666668 0.12111111111111111 0.12222222222222222 0.12222222222222222 0.12333333333333334 0.12333333333333334 0.12111111111111111 0.11666666666666667 0.11444444444444445 0.11333333333333333 0.11222222222222222 0.10666666666666667 0.10444444444444445 0.10333333333333333 0.10222222222222223 0.1 0.09444444444444444 0.09444444444444444 0.09444444444444444 0.09444444444444444 0.09555555555555556 0.09555555555555556 0.09444444444444444 0.09666666666666666 0.09888888888888889 0.10222222222222223 0.11444444444444445 0.11888888888888889 0.12 0.12222222222222222 0.12222222222222222 0.1111111111111111 0.1111111111111111 0.11333333333333333 0.11666666666666667 0.11888888888888889 0.1288888888888889 0.12777777777777777 0.12333333333333334 0.12111111111111111 0.12111111111111111 0.12222222222222222 0.12222222222222222 0.12111111111111111 0.12222222222222222 0.12333333333333334 0.12444444444444444 0.12555555555555556 0.12666666666666668 0.12444444444444444 0.12555555555555556 0.12777777777777777 0.12555555555555556 0.12222222222222222 0.12111111111111111 0.12111111111111111 0.12555555555555556 0.12555555555555556 0.12222222222222222 0.11777777777777777 0.11666666666666667 0.11555555555555555 0.11222222222222222 0.11333333333333333 0.1111111111111111 0.1111111111111111 0.11 0.11 0.11 0.10888888888888888 0.1111111111111111 0.11888888888888889 0.12777777777777777 0.12777777777777777 0.12777777777777777 0.12555555555555556 0.12444444444444444 0.12444444444444444 0.12555555555555556 0.12555555555555556 0.12555555555555556 0.12444444444444444 0.12333333333333334 0.12444444444444444 0.12555555555555556 0.12555555555555556 0.12555555555555556 0.12666666666666668 0.12444444444444444 0.12444444444444444 0.12666666666666668 0.12777777777777777 0.13444444444444445 0.13777777777777778 0.1388888888888889 0.1388888888888889 0.13777777777777778 0.1388888888888889 0.14 0.14 0.14333333333333334 0.14444444444444443 0.1411111111111111 0.1411111111111111 0.14222222222222222 0.14 0.13666666666666666 0.13333333333333333 0.1322222222222222 0.13111111111111112 0.13111111111111112 0.13111111111111112 0.1288888888888889 0.12777777777777777 0.12666666666666668 0.12333333333333334
0.1622222222222222 0.16111111111111112 0.16333333333333333 0.16333333333333333 0.16444444444444445 0.16333333333333333 0.16333333333333333 0.16444444444444445 0.15888888888888889 0.15444444444444444 0.14777777777777779 0.14777777777777779 0.15444444444444444 0.16 0.16111111111111112 0.16444444444444445 0.16666666666666666 0.1688888888888889 0.17 0.16777777777777778 0.1622222222222222 0.15888888888888889 0.15666666666666668 0.15444444444444444 0.15555555555555556 0.15666666666666668 0.15555555555555556 0.15444444444444444 0.15222222222222223 0.15 0.15 0.15 0.1511111111111111 0.15 0.1511111111111111 0.15333333333333332 0.15555555555555556 0.15666666666666668 0.15888888888888889 0.16 0.15777777777777777 0.15333333333333332 0.15 0.14222222222222222 0.14222222222222222 0.1411111111111111 0.13666666666666666 0.13 0.12444444444444444 0.12555555555555556 0.12666666666666668 0.12666666666666668 0.12555555555555556 0.12555555555555556 0.12333333333333334 0.11777777777777777 0.11555555555555555 0.11333333333333333 0.10555555555555556 0.10444444444444445 0.10444444444444445 0.10111111111111111 0.09777777777777778 0.09222222222222222 0.09222222222222222 0.09333333333333334 0.09333333333333334 0.09333333333333334 0.09666666666666666 0.09777777777777778 0.1 0.10555555555555556 0.11333333333333333 0.12111111111111111 0.12111111111111111 0.11888888888888889 0.11888888888888889 0.11666666666666667 0.10888888888888888 0.11222222222222222 0.11666666666666667 0.12 0.12222222222222222 0.13 0.1288888888888889 0.12777777777777777 0.12777777777777777 0.12777777777777777 0.12777777777777777 0.12666666666666668 0.12444444444444444 0.12555555555555556 0.12777777777777777 0.1288888888888889 0.1288888888888889 0.1288888888888889 0.12666666666666668 0.12555555555555556 0.1288888888888889 0.12555555555555556 0.12333333333333334 0.12111111111111111 0.12111111111111111 0.12555555555555556 0.1288888888888889 0.12555555555555556 0.12222222222222222 0.12111111111111111 0.11888888888888889 0.11777777777777777 0.11444444444444445 0.11222222222222222 0.11 0.1111111111111111 0.11333333333333333 0.1111111111111111 0.11 0.11222222222222222 0.11888888888888889 0.12444444444444444 0.12555555555555556 0.12555555555555556 0.12666666666666668 0.12666666666666668 0.12555555555555556 0.12666666666666668 0.1288888888888889 0.13 0.1288888888888889 0.12777777777777777 0.1288888888888889 0.13 0.12777777777777777 0.12777777777777777 0.12666666666666668 0.12444444444444444 0.12555555555555556 0.12666666666666668 0.12777777777777777 0.13333333333333333 0.13666666666666666 0.1388888888888889 0.1388888888888889 0.14 0.14222222222222222 0.14333333333333334 0.14333333333333334 0.14222222222222222 0.14333333333333334 0.1411111111111111 0.1411111111111111 0.1388888888888889 0.13666666666666666 0.13555555555555557 0.1322222222222222 0.1322222222222222 0.13111111111111112 0.13111111111111112 0.13111111111111112 0.12666666666666668 0.12444444444444444 0.12555555555555556 0.12555555555555556
0.15555555555555556 0.15666666666666668 0.16111111111111112 0.1622222222222222 0.1622222222222222 0.16 0.16 0.16 0.15666666666666668 0.15444444444444444 0.15 0.14777777777777779 0.15 0.15555555555555556 0.15777777777777777 0.16333333333333333 0.16555555555555557 0.1622222222222222 0.16555555555555557 0.16444444444444445 0.16 0.15666666666666668 0.15555555555555556 0.15555555555555556 0.15777777777777777 0.15777777777777777 0.15777777777777777 0.15666666666666668 0.15222222222222223 0.1511111111111111 0.14888888888888888 0.14888888888888888 0.14888888888888888 0.15 0.1511111111111111 0.15333333333333332 0.15555555555555556 0.15666666666666668 0.15888888888888889 0.15777777777777777 0.15444444444444444 0.1511111111111111 0.14888888888888888 0.1411111111111111 0.1388888888888889 0.14 0.13666666666666666 0.1322222222222222 0.13 0.13 0.1288888888888889 0.12777777777777777 0.12666666666666668 0.12666666666666668 0.12333333333333334 0.11888888888888889 0.11666666666666667 0.11444444444444445 0.10777777777777778 0.10666666666666667 0.10444444444444445 0.10111111111111111 0.09777777777777778 0.09333333333333334 0.09333333333333334 0.09333333333333334 0.09333333333333334 0.09333333333333334 0.10222222222222223 0.10666666666666667 0.11 0.11555555555555555 0.12222222222222222 0.12222222222222222 0.12111111111111111 0.12 0.11777777777777777 0.11444444444444445 0.1111111111111111 0.11444444444444445 0.11888888888888889 0.12222222222222222 0.12444444444444444 0.1288888888888889 0.12777777777777777 0.1288888888888889 0.13 0.13 0.1288888888888889 0.12666666666666668 0.12444444444444444 0.12444444444444444 0.12666666666666668 0.13 0.13444444444444445 0.13444444444444445 0.13111111111111112 0.13 0.12777777777777777 0.12777777777777777 0.12444444444444444 0.12111111111111111 0.12222222222222222 0.12666666666666668 0.13111111111111112 0.13 0.1288888888888889 0.12777777777777777 0.12444444444444444 0.11777777777777777 0.11444444444444445 0.11666666666666667 0.11666666666666667 0.11777777777777777 0.11777777777777777 0.11555555555555555 0.11555555555555555 0.11888888888888889 0.12222222222222222 0.12222222222222222 0.12111111111111111 0.12111111111111111 0.12333333333333334 0.12555555555555556 0.12666666666666668 0.1288888888888889 0.1322222222222222 0.13333333333333333 0.13444444444444445 0.13777777777777778 0.13777777777777778 0.13555555555555557 0.1322222222222222 0.12777777777777777 0.12666666666666668 0.12666666666666668 0.12666666666666668 0.12777777777777777 0.1288888888888889 0.13444444444444445 0.13666666666666666 0.13777777777777778 0.1388888888888889 0.14 0.14222222222222222 0.14444444444444443 0.14555555555555555 0.14222222222222222 0.1388888888888889 0.1388888888888889 0.1388888888888889 0.13555555555555557 0.13666666666666666 0.13666666666666666 0.13333333333333333 0.13333333333333333 0.1322222222222222 0.1322222222222222 0.13111111111111112 0.12777777777777777 0.12777777777777777 0.12777777777777777 0.12666666666666668
0.15222222222222223 0.15222222222222223 0.15444444444444444 0.16 0.16111111111111112 0.16111111111111112 0.1622222222222222 0.1622222222222222 0.15222222222222223 0.1511111111111111 0.14888888888888888 0.14777777777777779 0.15 0.15444444444444444 0.15555555555555556 0.15888888888888889 0.16444444444444445 0.16333333333333333 0.16 0.16 0.15777777777777777 0.15555555555555556 0.15555555555555556 0.15888888888888889 0.16111111111111112 0.16111111111111112 0.16 0.15888888888888889 0.15333333333333332 0.1511111111111111 0.14888888888888888 0.14888888888888888 0.14888888888888888 0.14888888888888888 0.14888888888888888 0.1511111111111111 0.15333333333333332 0.15444444444444444 0.15666666666666668 0.15444444444444444 0.1511111111111111 0.14888888888888888 0.14777777777777779 0.1411111111111111 0.14 0.1388888888888889 0.13666666666666666 0.1322222222222222 0.13111111111111112 0.1288888888888889 0.1288888888888889 0.12666666666666668 0.12555555555555556 0.12222222222222222 0.12111111111111111 0.11777777777777777 0.11666666666666667 0.11555555555555555 0.11 0.10888888888888888 0.10555555555555556 0.10111111111111111 0.09777777777777778 0.09444444444444444 0.09555555555555556 0.09444444444444444 0.09555555555555556 0.09666666666666666 0.1111111111111111 0.11333333333333333 0.11333333333333333 0.11666666666666667 0.12 0.12 0.11888888888888889 0.11777777777777777 0.11555555555555555 0.11333333333333333 0.11333333333333333 0.11666666666666667 0.12111111111111111 0.12333333333333334 0.12555555555555556 0.12666666666666668 0.12555555555555556 0.12666666666666668 0.1288888888888889 0.13 0.1288888888888889 0.12666666666666668 0.12444444444444444 0.12333333333333334 0.12555555555555556 0.1288888888888889 0.13555555555555557 0.13555555555555557 0.13555555555555557 0.1322222222222222 0.13111111111111112 0.1288888888888889 0.12555555555555556 0.12444444444444444 0.12444444444444444 0.12666666666666668 0.13111111111111112 0.1322222222222222 0.13111111111111112 0.13 0.12666666666666668 0.12222222222222222 0.11888888888888889 0.11666666666666667 0.12 0.12111111111111111 0.11888888888888889 0.11777777777777777 0.11888888888888889 0.12222222222222222 0.12333333333333334 0.12 0.11777777777777777 0.11666666666666667 0.11888888888888889 0.12222222222222222 0.12777777777777777 0.13111111111111112 0.1322222222222222 0.13555555555555557 0.13777777777777778 0.14222222222222222 0.14222222222222222 0.1388888888888889 0.13555555555555557 0.13333333333333333 0.12777777777777777 0.12666666666666668 0.12666666666666668 0.1288888888888889 0.13111111111111112 0.13666666666666666 0.13666666666666666 0.13666666666666666 0.13777777777777778 0.1388888888888889 0.1411111111111111 0.14333333333333334 0.14444444444444443 0.1411111111111111 0.1388888888888889 0.1388888888888889 0.13777777777777778 0.13444444444444445 0.13333333333333333 0.13333333333333333 0.13444444444444445 0.13444444444444445 0.13444444444444445 0.13555555555555557 0.13333333333333333 0.12777777777777777 0.12777777777777777 0.13111111111111112 0.12666666666666668
